-279.64859997324027 -103.98557710989049 526
-274.7889142616311 -102.40404742000621 518
-274.18243919600275 -102.40404742000621 518
-273.5759641303744 -102.40404742000621 518
-272.9694890647461 -102.40404742000621 518
-272.36301399911775 -102.40404742000621 518
-271.7565389334894 -102.40404742000621 518
-271.1500638678611 -102.40404742000621 518
-270.54358880223276 -102.40404742000621 518
-269.93711373660443 -102.40404742000621 518
-269.3306386709761 -102.40404742000621 518
-268.72416360534777 -102.40404742000621 518
-268.11768853971944 -102.40404742000621 518
-267.5112134740911 -102.40404742000621 518
-266.9047384084627 -102.40404742000621 518
-266.2982633428344 -102.40404742000621 518
-265.69178827720606 -102.40404742000621 518
-265.0853132115777 -102.40404742000621 518
-264.4788381459494 -102.40404742000621 518
-263.87236308032107 -102.40404742000621 518
-263.26588801469273 -102.40404742000621 518
-262.6594129490644 -102.40404742000621 518
-262.0529378834361 -102.40404742000621 518
-261.44646281780774 -102.40404742000621 518
-260.8399877521794 -102.40404742000621 518
-264.2525630755326 -103.98557710989049 526
-263.63672159962425 -103.98557710989049 526
-263.0208801237159 -103.98557710989049 526
-262.40503864780766 -103.98557710989049 526
-261.78919717189933 -103.98557710989049 526
-261.173355695991 -103.98557710989049 526
-260.5575142200827 -103.98557710989049 526
-259.9416727441744 -103.98557710989049 526
-263.7629652633505 -105.76479801101028 535
-263.13658657587723 -105.76479801101028 535
-262.51020788840395 -105.76479801101028 535
-261.8838292009307 -105.76479801101028 535
-261.2574505134574 -105.76479801101028 535
-260.6310718259841 -105.76479801101028 535
-260.00469313851085 -105.76479801101028 535
-259.37831445103757 -105.76479801101028 535
-258.7519357635643 -105.76479801101028 535
-258.12555707609096 -105.76479801101028 535
-257.4991783886177 -105.76479801101028 535
-256.8727997011444 -105.76479801101028 535
-256.2464210136711 -105.76479801101028 535
-255.62004232619788 -105.76479801101028 535
-254.9936636387246 -105.76479801101028 535
-254.36728495125132 -105.76479801101028 535
-253.74090626377802 -105.76479801101028 535
-253.11452757630474 -105.76479801101028 535
-252.48814888883146 -105.76479801101028 535
-251.86177020135818 -105.76479801101028 535
-251.2353915138849 -105.76479801101028 535
-254.35643731727387 -107.34632770089456 543
-253.7206922195206 -107.34632770089456 543
-253.08494712176736 -107.34632770089456 543
-256.63344294153916 -109.12554860201435 552
-255.98716063222093 -109.12554860201435 552
-255.3408783229027 -109.12554860201435 552
-259.3086285500625 -111.10246071436968 562
-258.6506382278943 -111.10246071436968 562
-257.99264790572613 -111.10246071436968 562
-253.38671565054878 -111.10246071436968 562
-275.937269876783 -123.55700702220828 625
-275.20551907365996 -123.55700702220828 625
-274.473768270537 -123.55700702220828 625
-273.742017467414 -123.55700702220828 625
-273.010266664291 -123.55700702220828 625
-272.278515861168 -123.55700702220828 625
-271.546765058045 -123.55700702220828 625
-270.815014254922 -123.55700702220828 625
-270.08326345179904 -123.55700702220828 625
-269.351512648676 -123.55700702220828 625
-268.61976184555306 -123.55700702220828 625
-322.703731965365 -118.5023506861515 603
-316.12381652401837 -116.3406162623577 592
-280.2644414491486 -103.37020971959484 526
-279.64859997324027 -103.37020971959484 526
-274.7889142616311 -101.79803922956297 518
-274.18243919600275 -101.79803922956297 518
-273.5759641303744 -101.79803922956297 518
-272.9694890647461 -101.79803922956297 518
-272.36301399911775 -101.79803922956297 518
-271.7565389334894 -101.79803922956297 518
-271.1500638678611 -101.79803922956297 518
-270.54358880223276 -101.79803922956297 518
-269.93711373660443 -101.79803922956297 518
-269.3306386709761 -101.79803922956297 518
-268.72416360534777 -101.79803922956297 518
-268.11768853971944 -101.79803922956297 518
-267.5112134740911 -101.79803922956297 518
-266.9047384084627 -101.79803922956297 518
-266.2982633428344 -101.79803922956297 518
-265.69178827720606 -101.79803922956297 518
-265.0853132115777 -101.79803922956297 518
-264.4788381459494 -101.79803922956297 518
-263.87236308032107 -101.79803922956297 518
-263.26588801469273 -101.79803922956297 518
-262.6594129490644 -101.79803922956297 518
-262.0529378834361 -101.79803922956297 518
-261.44646281780774 -101.79803922956297 518
-264.86840455144085 -103.37020971959484 526
-264.2525630755326 -103.37020971959484 526
-263.63672159962425 -103.37020971959484 526
-263.0208801237159 -103.37020971959484 526
-262.40503864780766 -103.37020971959484 526
-261.78919717189933 -103.37020971959484 526
-261.173355695991 -103.37020971959484 526
-260.5575142200827 -103.37020971959484 526
-264.3893439508238 -105.1389015208807 535
-263.7629652633505 -105.1389015208807 535
-263.13658657587723 -105.1389015208807 535
-262.51020788840395 -105.1389015208807 535
-261.8838292009307 -105.1389015208807 535
-261.2574505134574 -105.1389015208807 535
-260.6310718259841 -105.1389015208807 535
-260.00469313851085 -105.1389015208807 535
-259.37831445103757 -105.1389015208807 535
-258.7519357635643 -105.1389015208807 535
-258.12555707609096 -105.1389015208807 535
-257.4991783886177 -105.1389015208807 535
-256.8727997011444 -105.1389015208807 535
-256.2464210136711 -105.1389015208807 535
-255.62004232619788 -105.1389015208807 535
-254.9936636387246 -105.1389015208807 535
-254.36728495125132 -105.1389015208807 535
-253.74090626377802 -105.1389015208807 535
-253.11452757630474 -105.1389015208807 535
-252.48814888883146 -105.1389015208807 535
-251.86177020135818 -105.1389015208807 535
-254.99218241502712 -106.71107201091256 543
-254.35643731727387 -106.71107201091256 543
-253.7206922195206 -106.71107201091256 543
-257.2797252508574 -108.4797638121984 552
-256.63344294153916 -108.4797638121984 552
-255.98716063222093 -108.4797638121984 552
-255.3408783229027 -108.4797638121984 552
-254.6945960135845 -108.4797638121984 552
-258.6506382278943 -110.44497692473821 562
-257.99264790572613 -110.44497692473821 562
-254.04470597271697 -110.44497692473821 562
-244.82026085097505 -106.71107201091256 543
-232.94213473327605 -101.79803922956297 518
-232.33565966764772 -101.79803922956297 518
-275.20551907365996 -122.82581953373912 625
-274.473768270537 -122.82581953373912 625
-273.742017467414 -122.82581953373912 625
-273.010266664291 -122.82581953373912 625
-272.278515861168 -122.82581953373912 625
-271.546765058045 -122.82581953373912 625
-276.0146625286165 -125.18407526878691 637
-275.26886211007354 -125.18407526878691 637
-269.351512648676 -122.82581953373912 625
-273.77726127298763 -125.18407526878691 637
-322.703731965365 -117.79690099727645 603
-316.12381652401837 -115.64803547327972 592
-280.2644414491486 -102.7548423292992 526
-279.64859997324027 -102.7548423292992 526
-274.7889142616311 -101.19203103911974 518
-274.18243919600275 -101.19203103911974 518
-273.5759641303744 -101.19203103911974 518
-272.9694890647461 -101.19203103911974 518
-272.36301399911775 -101.19203103911974 518
-271.7565389334894 -101.19203103911974 518
-271.1500638678611 -101.19203103911974 518
-270.54358880223276 -101.19203103911974 518
-269.93711373660443 -101.19203103911974 518
-269.3306386709761 -101.19203103911974 518
-268.72416360534777 -101.19203103911974 518
-268.11768853971944 -101.19203103911974 518
-267.5112134740911 -101.19203103911974 518
-266.9047384084627 -101.19203103911974 518
-266.2982633428344 -101.19203103911974 518
-265.69178827720606 -101.19203103911974 518
-265.0853132115777 -101.19203103911974 518
-264.4788381459494 -101.19203103911974 518
-263.87236308032107 -101.19203103911974 518
-263.26588801469273 -101.19203103911974 518
-262.6594129490644 -101.19203103911974 518
-262.0529378834361 -101.19203103911974 518
-265.4842460273492 -102.7548423292992 526
-264.86840455144085 -102.7548423292992 526
-264.2525630755326 -102.7548423292992 526
-263.63672159962425 -102.7548423292992 526
-263.0208801237159 -102.7548423292992 526
-262.40503864780766 -102.7548423292992 526
-261.78919717189933 -102.7548423292992 526
-261.173355695991 -102.7548423292992 526
-260.5575142200827 -102.7548423292992 526
-264.3893439508238 -104.51300503075109 535
-263.7629652633505 -104.51300503075109 535
-263.13658657587723 -104.51300503075109 535
-262.51020788840395 -104.51300503075109 535
-261.8838292009307 -104.51300503075109 535
-261.2574505134574 -104.51300503075109 535
-260.6310718259841 -104.51300503075109 535
-260.00469313851085 -104.51300503075109 535
-259.37831445103757 -104.51300503075109 535
-258.7519357635643 -104.51300503075109 535
-258.12555707609096 -104.51300503075109 535
-257.4991783886177 -104.51300503075109 535
-256.8727997011444 -104.51300503075109 535
-256.2464210136711 -104.51300503075109 535
-255.62004232619788 -104.51300503075109 535
-254.9936636387246 -104.51300503075109 535
-254.36728495125132 -104.51300503075109 535
-253.74090626377802 -104.51300503075109 535
-253.11452757630474 -104.51300503075109 535
-252.48814888883146 -104.51300503075109 535
-251.86177020135818 -104.51300503075109 535
-254.99218241502712 -106.07581632093056 543
-258.57228986949383 -107.83397902238244 552
-257.9260075601756 -107.83397902238244 552
-257.2797252508574 -107.83397902238244 552
-256.63344294153916 -107.83397902238244 552
-255.98716063222093 -107.83397902238244 552
-255.3408783229027 -107.83397902238244 552
-254.6945960135845 -107.83397902238244 552
-254.04831370426626 -107.83397902238244 552
-257.99264790572613 -109.78749313510674 562
-254.04470597271697 -109.78749313510674 562
-241.21333251431244 -104.51300503075109 535
-232.94213473327605 -101.19203103911974 518
-232.33565966764772 -101.19203103911974 518
-231.72918460201936 -101.19203103911974 518
-277.5062633657024 -124.43884898053915 637
-276.76046294715945 -124.43884898053915 637
-276.0146625286165 -124.43884898053915 637
-275.26886211007354 -124.43884898053915 637
-274.5230616915306 -124.43884898053915 637
-316.12381652401837 -114.95545468420173 592
-280.2644414491486 -102.13947493900355 526
-279.64859997324027 -102.13947493900355 526
-279.03275849733194 -102.13947493900355 526
-274.18243919600275 -100.5860228486765 518
-273.5759641303744 -100.5860228486765 518
-272.9694890647461 -100.5860228486765 518
-272.36301399911775 -100.5860228486765 518
-271.7565389334894 -100.5860228486765 518
-271.1500638678611 -100.5860228486765 518
-270.54358880223276 -100.5860228486765 518
-274.1060266900655 -102.13947493900355 526
-269.3306386709761 -100.5860228486765 518
-268.72416360534777 -100.5860228486765 518
-268.11768853971944 -100.5860228486765 518
-267.5112134740911 -100.5860228486765 518
-266.9047384084627 -100.5860228486765 518
-266.2982633428344 -100.5860228486765 518
-265.69178827720606 -100.5860228486765 518
-265.0853132115777 -100.5860228486765 518
-264.4788381459494 -100.5860228486765 518
-263.87236308032107 -100.5860228486765 518
-263.26588801469273 -100.5860228486765 518
-266.71592897916577 -102.13947493900355 526
-266.1000875032575 -102.13947493900355 526
-265.4842460273492 -102.13947493900355 526
-264.86840455144085 -102.13947493900355 526
-264.2525630755326 -102.13947493900355 526
-263.63672159962425 -102.13947493900355 526
-263.0208801237159 -102.13947493900355 526
-262.40503864780766 -102.13947493900355 526
-261.78919717189933 -102.13947493900355 526
-261.173355695991 -102.13947493900355 526
-265.01572263829706 -103.8871085406215 535
-264.3893439508238 -103.8871085406215 535
-263.7629652633505 -103.8871085406215 535
-263.13658657587723 -103.8871085406215 535
-262.51020788840395 -103.8871085406215 535
-261.8838292009307 -103.8871085406215 535
-261.2574505134574 -103.8871085406215 535
-260.6310718259841 -103.8871085406215 535
-260.00469313851085 -103.8871085406215 535
-259.37831445103757 -103.8871085406215 535
-258.7519357635643 -103.8871085406215 535
-258.12555707609096 -103.8871085406215 535
-257.4991783886177 -103.8871085406215 535
-256.8727997011444 -103.8871085406215 535
-256.2464210136711 -103.8871085406215 535
-255.62004232619788 -103.8871085406215 535
-254.9936636387246 -103.8871085406215 535
-254.36728495125132 -103.8871085406215 535
-253.74090626377802 -103.8871085406215 535
-253.11452757630474 -103.8871085406215 535
-252.48814888883146 -103.8871085406215 535
-255.62792751278036 -105.44056063094855 543
-259.21857217881205 -107.18819423256647 552
-258.57228986949383 -107.18819423256647 552
-257.9260075601756 -107.18819423256647 552
-257.2797252508574 -107.18819423256647 552
-256.63344294153916 -107.18819423256647 552
-255.98716063222093 -107.18819423256647 552
-255.3408783229027 -107.18819423256647 552
-254.6945960135845 -107.18819423256647 552
-254.04831370426626 -107.18819423256647 552
-253.40203139494804 -107.18819423256647 552
-249.5243375390387 -107.18819423256647 552
-233.54860979890438 -100.5860228486765 518
-232.94213473327605 -100.5860228486765 518
-228.74746415154505 -99.03257075834946 510
-231.72918460201936 -100.5860228486765 518
-276.76046294715945 -123.69362269229138 637
-316.12381652401837 -114.26287389512375 592
-280.2644414491486 -101.5241075487079 526
-279.64859997324027 -101.5241075487079 526
-279.03275849733194 -101.5241075487079 526
-274.18243919600275 -99.98001465823326 518
-273.5759641303744 -99.98001465823326 518
-272.9694890647461 -99.98001465823326 518
-272.36301399911775 -99.98001465823326 518
-271.7565389334894 -99.98001465823326 518
-271.1500638678611 -99.98001465823326 518
-270.54358880223276 -99.98001465823326 518
-274.1060266900655 -101.5241075487079 526
-273.4901852141572 -101.5241075487079 526
-272.87434373824885 -101.5241075487079 526
-272.2585022623406 -101.5241075487079 526
-271.64266078643226 -101.5241075487079 526
-266.9047384084627 -99.98001465823326 518
-266.2982633428344 -99.98001465823326 518
-265.69178827720606 -99.98001465823326 518
-265.0853132115777 -99.98001465823326 518
-264.4788381459494 -99.98001465823326 518
-263.87236308032107 -99.98001465823326 518
-263.26588801469273 -99.98001465823326 518
-266.71592897916577 -101.5241075487079 526
-266.1000875032575 -101.5241075487079 526
-265.4842460273492 -101.5241075487079 526
-264.86840455144085 -101.5241075487079 526
-264.2525630755326 -101.5241075487079 526
-263.63672159962425 -101.5241075487079 526
-263.0208801237159 -101.5241075487079 526
-262.40503864780766 -101.5241075487079 526
-261.78919717189933 -101.5241075487079 526
-265.64210132577034 -103.26121205049189 535
-265.01572263829706 -103.26121205049189 535
-264.3893439508238 -103.26121205049189 535
-263.7629652633505 -103.26121205049189 535
-263.13658657587723 -103.26121205049189 535
-262.51020788840395 -103.26121205049189 535
-261.8838292009307 -103.26121205049189 535
-261.2574505134574 -103.26121205049189 535
-260.6310718259841 -103.26121205049189 535
-260.00469313851085 -103.26121205049189 535
-259.37831445103757 -103.26121205049189 535
-258.7519357635643 -103.26121205049189 535
-258.12555707609096 -103.26121205049189 535
-257.4991783886177 -103.26121205049189 535
-256.8727997011444 -103.26121205049189 535
-256.2464210136711 -103.26121205049189 535
-255.62004232619788 -103.26121205049189 535
-254.9936636387246 -103.26121205049189 535
-254.36728495125132 -103.26121205049189 535
-253.74090626377802 -103.26121205049189 535
-253.11452757630474 -103.26121205049189 535
-260.5111367974485 -106.54240944275051 552
-259.8648544881303 -106.54240944275051 552
-259.21857217881205 -106.54240944275051 552
-258.57228986949383 -106.54240944275051 552
-257.9260075601756 -106.54240944275051 552
-261.94058983873526 -108.47252555584382 562
-261.2825995165671 -108.47252555584382 562
-260.6246091943989 -108.47252555584382 562
-259.9666188722307 -108.47252555584382 562
-259.3086285500625 -108.47252555584382 562
-246.09175104648156 -104.80530494096655 543
-241.83971120178572 -103.26121205049189 535
-233.54860979890438 -99.98001465823326 518
-232.94213473327605 -99.98001465823326 518
-228.74746415154505 -98.43592176775863 510
-231.72918460201936 -99.98001465823326 518
-285.68621932491527 -102.6353155603623 535
-280.2644414491486 -100.90874015841227 526
-279.64859997324027 -100.90874015841227 526
-279.03275849733194 -100.90874015841227 526
-278.41691702142367 -100.90874015841227 526
-273.5759641303744 -99.37400646779002 518
-272.9694890647461 -99.37400646779002 518
-272.36301399911775 -99.37400646779002 518
-271.7565389334894 -99.37400646779002 518
-275.3377096418821 -100.90874015841227 526
-274.7218681659738 -100.90874015841227 526
-274.1060266900655 -100.90874015841227 526
-273.4901852141572 -100.90874015841227 526
-272.87434373824885 -100.90874015841227 526
-272.2585022623406 -100.90874015841227 526
-271.64266078643226 -100.90874015841227 526
-271.02681931052393 -100.90874015841227 526
-270.41097783461566 -100.90874015841227 526
-269.79513635870734 -100.90874015841227 526
-269.179294882799 -100.90874015841227 526
-268.5634534068907 -100.90874015841227 526
-267.9476119309824 -100.90874015841227 526
-267.3317704550741 -100.90874015841227 526
-266.71592897916577 -100.90874015841227 526
-266.1000875032575 -100.90874015841227 526
-265.4842460273492 -100.90874015841227 526
-264.86840455144085 -100.90874015841227 526
-264.2525630755326 -100.90874015841227 526
-268.14761607566345 -102.6353155603623 535
-267.5212373881902 -102.6353155603623 535
-266.8948587007169 -102.6353155603623 535
-266.2684800132436 -102.6353155603623 535
-265.64210132577034 -102.6353155603623 535
-265.01572263829706 -102.6353155603623 535
-264.3893439508238 -102.6353155603623 535
-263.7629652633505 -102.6353155603623 535
-263.13658657587723 -102.6353155603623 535
-262.51020788840395 -102.6353155603623 535
-261.8838292009307 -102.6353155603623 535
-261.2574505134574 -102.6353155603623 535
-260.6310718259841 -102.6353155603623 535
-260.00469313851085 -102.6353155603623 535
-259.37831445103757 -102.6353155603623 535
-258.7519357635643 -102.6353155603623 535
-258.12555707609096 -102.6353155603623 535
-257.4991783886177 -102.6353155603623 535
-256.8727997011444 -102.6353155603623 535
-256.2464210136711 -102.6353155603623 535
-255.62004232619788 -102.6353155603623 535
-254.9936636387246 -102.6353155603623 535
-254.36728495125132 -102.6353155603623 535
-261.80370141608495 -105.89662465293456 552
-261.1574191067667 -105.89662465293456 552
-260.5111367974485 -105.89662465293456 552
-264.572551127408 -107.81504176621235 562
-261.2825995165671 -107.81504176621235 562
-260.6246091943989 -107.81504176621235 562
-259.9666188722307 -107.81504176621235 562
-242.466089889259 -102.6353155603623 535
-237.77137961147528 -100.90874015841227 526
-233.54860979890438 -99.37400646779002 518
-232.94213473327605 -99.37400646779002 518
-228.74746415154505 -97.8392727771678 510
-231.72918460201936 -99.37400646779002 518
-285.68621932491527 -102.0094190702327 535
-280.2644414491486 -100.29337276811663 526
-279.64859997324027 -100.29337276811663 526
-279.03275849733194 -100.29337276811663 526
-278.41691702142367 -100.29337276811663 526
-277.80107554551535 -100.29337276811663 526
-277.185234069607 -100.29337276811663 526
-276.5693925936987 -100.29337276811663 526
-275.9535511177904 -100.29337276811663 526
-275.3377096418821 -100.29337276811663 526
-274.7218681659738 -100.29337276811663 526
-274.1060266900655 -100.29337276811663 526
-273.4901852141572 -100.29337276811663 526
-277.54329638776267 -102.0094190702327 535
-276.9169177002894 -102.0094190702327 535
-276.2905390128161 -102.0094190702327 535
-275.66416032534283 -102.0094190702327 535
-270.41097783461566 -100.29337276811663 526
-269.79513635870734 -100.29337276811663 526
-269.179294882799 -100.29337276811663 526
-268.5634534068907 -100.29337276811663 526
-267.9476119309824 -100.29337276811663 526
-267.3317704550741 -100.29337276811663 526
-266.71592897916577 -100.29337276811663 526
-266.1000875032575 -100.29337276811663 526
-265.4842460273492 -100.29337276811663 526
-269.40037345061 -102.0094190702327 535
-268.7739947631367 -102.0094190702327 535
-268.14761607566345 -102.0094190702327 535
-267.5212373881902 -102.0094190702327 535
-266.8948587007169 -102.0094190702327 535
-266.2684800132436 -102.0094190702327 535
-265.64210132577034 -102.0094190702327 535
-265.01572263829706 -102.0094190702327 535
-264.3893439508238 -102.0094190702327 535
-263.7629652633505 -102.0094190702327 535
-263.13658657587723 -102.0094190702327 535
-262.51020788840395 -102.0094190702327 535
-261.8838292009307 -102.0094190702327 535
-261.2574505134574 -102.0094190702327 535
-260.6310718259841 -102.0094190702327 535
-260.00469313851085 -102.0094190702327 535
-259.37831445103757 -102.0094190702327 535
-262.62112358806615 -103.53479356100253 543
-261.9853784903129 -103.53479356100253 543
-261.34963339255967 -103.53479356100253 543
-260.7138882948064 -103.53479356100253 543
-260.0781431970531 -103.53479356100253 543
-263.7425483440396 -105.2508398631186 552
-263.0962660347214 -105.2508398631186 552
-262.4499837254032 -105.2508398631186 552
-261.80370141608495 -105.2508398631186 552
-261.1574191067667 -105.2508398631186 552
-260.5111367974485 -105.2508398631186 552
-264.572551127408 -107.15755797658088 562
-260.6246091943989 -107.15755797658088 562
-259.9666188722307 -107.15755797658088 562
-238.3872210873836 -100.29337276811663 526
-237.77137961147528 -100.29337276811663 526
-233.54860979890438 -98.76799827734679 518
-232.94213473327605 -98.76799827734679 518
-232.33565966764772 -98.76799827734679 518
-285.68621932491527 -101.3835225801031 535
-280.2644414491486 -99.67800537782098 526
-279.64859997324027 -99.67800537782098 526
-279.03275849733194 -99.67800537782098 526
-278.41691702142367 -99.67800537782098 526
-277.80107554551535 -99.67800537782098 526
-277.185234069607 -99.67800537782098 526
-276.5693925936987 -99.67800537782098 526
-275.9535511177904 -99.67800537782098 526
-275.3377096418821 -99.67800537782098 526
-274.7218681659738 -99.67800537782098 526
-274.1060266900655 -99.67800537782098 526
-273.4901852141572 -99.67800537782098 526
-277.54329638776267 -101.3835225801031 535
-276.9169177002894 -101.3835225801031 535
-276.2905390128161 -101.3835225801031 535
-275.66416032534283 -101.3835225801031 535
-270.41097783461566 -99.67800537782098 526
-269.79513635870734 -99.67800537782098 526
-269.179294882799 -99.67800537782098 526
-268.5634534068907 -99.67800537782098 526
-267.9476119309824 -99.67800537782098 526
-267.3317704550741 -99.67800537782098 526
-266.71592897916577 -99.67800537782098 526
-266.1000875032575 -99.67800537782098 526
-270.0267521380833 -101.3835225801031 535
-269.40037345061 -101.3835225801031 535
-268.7739947631367 -101.3835225801031 535
-268.14761607566345 -101.3835225801031 535
-267.5212373881902 -101.3835225801031 535
-266.8948587007169 -101.3835225801031 535
-266.2684800132436 -101.3835225801031 535
-265.64210132577034 -101.3835225801031 535
-265.01572263829706 -101.3835225801031 535
-264.3893439508238 -101.3835225801031 535
-263.7629652633505 -101.3835225801031 535
-263.13658657587723 -101.3835225801031 535
-262.51020788840395 -101.3835225801031 535
-265.7998490768324 -102.89953787102053 543
-265.1641039790792 -102.89953787102053 543
-264.5283588813259 -102.89953787102053 543
-263.89261378357264 -102.89953787102053 543
-263.2568686858194 -102.89953787102053 543
-262.62112358806615 -102.89953787102053 543
-261.9853784903129 -102.89953787102053 543
-261.34963339255967 -102.89953787102053 543
-265.03511296267607 -104.60505507330264 552
-264.38883065335784 -104.60505507330264 552
-268.5204930604172 -106.50007418694942 562
-267.862502738249 -106.50007418694942 562
-267.20451241608083 -106.50007418694942 562
-271.2893427717402 -108.39509330059622 572
-261.1574191067667 -104.60505507330264 552
-260.5111367974485 -104.60505507330264 552
-259.8648544881303 -104.60505507330264 552
-216.01547681567672 -87.1708792277522 460
-215.4769082245782 -87.1708792277522 460
-262.59858016090345 -106.50007418694942 562
-261.94058983873526 -106.50007418694942 562
-238.3872210873836 -99.67800537782098 526
-234.1550848645327 -98.16199008690356 518
-233.54860979890438 -98.16199008690356 518
-232.94213473327605 -98.16199008690356 518
-232.33565966764772 -98.16199008690356 518
-285.68621932491527 -100.7576260899735 535
-280.2644414491486 -99.06263798752533 526
-279.64859997324027 -99.06263798752533 526
-279.03275849733194 -99.06263798752533 526
-278.41691702142367 -99.06263798752533 526
-277.80107554551535 -99.06263798752533 526
-277.185234069607 -99.06263798752533 526
-276.5693925936987 -99.06263798752533 526
-275.9535511177904 -99.06263798752533 526
-275.3377096418821 -99.06263798752533 526
-274.7218681659738 -99.06263798752533 526
-274.1060266900655 -99.06263798752533 526
-273.4901852141572 -99.06263798752533 526
-277.54329638776267 -100.7576260899735 535
-276.9169177002894 -100.7576260899735 535
-276.2905390128161 -100.7576260899735 535
-275.66416032534283 -100.7576260899735 535
-270.41097783461566 -99.06263798752533 526
-269.79513635870734 -99.06263798752533 526
-269.179294882799 -99.06263798752533 526
-268.5634534068907 -99.06263798752533 526
-267.9476119309824 -99.06263798752533 526
-267.3317704550741 -99.06263798752533 526
-266.71592897916577 -99.06263798752533 526
-266.1000875032575 -99.06263798752533 526
-265.4842460273492 -99.06263798752533 526
-269.40037345061 -100.7576260899735 535
-268.7739947631367 -100.7576260899735 535
-268.14761607566345 -100.7576260899735 535
-267.5212373881902 -100.7576260899735 535
-266.8948587007169 -100.7576260899735 535
-266.2684800132436 -100.7576260899735 535
-265.64210132577034 -100.7576260899735 535
-265.01572263829706 -100.7576260899735 535
-264.3893439508238 -100.7576260899735 535
-263.7629652633505 -100.7576260899735 535
-263.13658657587723 -100.7576260899735 535
-266.4355941745857 -102.26428218103852 543
-265.7998490768324 -102.26428218103852 543
-265.1641039790792 -102.26428218103852 543
-264.5283588813259 -102.26428218103852 543
-263.89261378357264 -102.26428218103852 543
-263.2568686858194 -102.26428218103852 543
-262.62112358806615 -102.26428218103852 543
-261.9853784903129 -102.26428218103852 543
-265.6813952719943 -103.95927028348667 552
-269.8364737047536 -105.84259039731795 562
-273.9681361118129 -107.72591051114924 572
-277.3949761453041 -109.60923062498051 582
-271.9590411067584 -107.72591051114924 572
-271.2893427717402 -107.72591051114924 572
-261.1574191067667 -103.95927028348667 552
-223.69978051085255 -89.2693733956027 474
-223.14482070176408 -89.2693733956027 474
-216.01547681567672 -86.6327252362389 460
-215.4769082245782 -86.6327252362389 460
-262.59858016090345 -105.84259039731795 562
-261.94058983873526 -105.84259039731795 562
-307.1598294539645 -127.31243969499454 676
-238.3872210873836 -99.06263798752533 526
-234.1550848645327 -97.55598189646031 518
-233.54860979890438 -97.55598189646031 518
-232.94213473327605 -97.55598189646031 518
-232.33565966764772 -97.55598189646031 518
-285.68621932491527 -100.13172959984391 535
-280.2644414491486 -98.44727059722969 526
-279.64859997324027 -98.44727059722969 526
-279.03275849733194 -98.44727059722969 526
-278.41691702142367 -98.44727059722969 526
-277.80107554551535 -98.44727059722969 526
-277.185234069607 -98.44727059722969 526
-276.5693925936987 -98.44727059722969 526
-275.9535511177904 -98.44727059722969 526
-275.3377096418821 -98.44727059722969 526
-274.7218681659738 -98.44727059722969 526
-274.1060266900655 -98.44727059722969 526
-273.4901852141572 -98.44727059722969 526
-277.54329638776267 -100.13172959984391 535
-276.9169177002894 -100.13172959984391 535
-276.2905390128161 -100.13172959984391 535
-275.66416032534283 -100.13172959984391 535
-275.0377816378695 -100.13172959984391 535
-269.79513635870734 -98.44727059722969 526
-269.179294882799 -98.44727059722969 526
-268.5634534068907 -98.44727059722969 526
-267.9476119309824 -98.44727059722969 526
-267.3317704550741 -98.44727059722969 526
-266.71592897916577 -98.44727059722969 526
-266.1000875032575 -98.44727059722969 526
-265.4842460273492 -98.44727059722969 526
-269.40037345061 -100.13172959984391 535
-268.7739947631367 -100.13172959984391 535
-268.14761607566345 -100.13172959984391 535
-267.5212373881902 -100.13172959984391 535
-266.8948587007169 -100.13172959984391 535
-266.2684800132436 -100.13172959984391 535
-265.64210132577034 -100.13172959984391 535
-265.01572263829706 -100.13172959984391 535
-264.3893439508238 -100.13172959984391 535
-263.7629652633505 -100.13172959984391 535
-267.07133927233895 -101.62902649105652 543
-266.4355941745857 -101.62902649105652 543
-265.7998490768324 -101.62902649105652 543
-265.1641039790792 -101.62902649105652 543
-264.5283588813259 -101.62902649105652 543
-263.89261378357264 -101.62902649105652 543
-263.2568686858194 -101.62902649105652 543
-262.62112358806615 -101.62902649105652 543
-261.9853784903129 -101.62902649105652 543
-265.6813952719943 -103.31348549367071 552
-269.8364737047536 -105.18510660768648 562
-223.69978051085255 -88.71484080434769 474
-223.14482070176408 -88.71484080434769 474
-216.01547681567672 -86.09457124472559 460
-215.4769082245782 -86.09457124472559 460
-214.9383396334797 -86.09457124472559 460
-261.94058983873526 -105.18510660768648 562
-307.1598294539645 -126.5215873074663 676
-234.76155993016104 -96.94997370601708 518
-234.1550848645327 -96.94997370601708 518
-233.54860979890438 -96.94997370601708 518
-232.94213473327605 -96.94997370601708 518
-232.33565966764772 -96.94997370601708 518
-285.68621932491527 -99.5058331097143 535
-285.059840637442 -99.5058331097143 535
-279.64859997324027 -97.83190320693406 526
-279.03275849733194 -97.83190320693406 526
-278.41691702142367 -97.83190320693406 526
-277.80107554551535 -97.83190320693406 526
-277.185234069607 -97.83190320693406 526
-276.5693925936987 -97.83190320693406 526
-275.9535511177904 -97.83190320693406 526
-280.0488111376558 -99.5058331097143 535
-274.7218681659738 -97.83190320693406 526
-274.1060266900655 -97.83190320693406 526
-278.16967507523594 -99.5058331097143 535
-277.54329638776267 -99.5058331097143 535
-276.9169177002894 -99.5058331097143 535
-276.2905390128161 -99.5058331097143 535
-275.66416032534283 -99.5058331097143 535
-275.0377816378695 -99.5058331097143 535
-269.79513635870734 -97.83190320693406 526
-269.179294882799 -97.83190320693406 526
-268.5634534068907 -97.83190320693406 526
-267.9476119309824 -97.83190320693406 526
-267.3317704550741 -97.83190320693406 526
-266.71592897916577 -97.83190320693406 526
-266.1000875032575 -97.83190320693406 526
-270.0267521380833 -99.5058331097143 535
-269.40037345061 -99.5058331097143 535
-268.7739947631367 -99.5058331097143 535
-268.14761607566345 -99.5058331097143 535
-267.5212373881902 -99.5058331097143 535
-266.8948587007169 -99.5058331097143 535
-266.2684800132436 -99.5058331097143 535
-265.64210132577034 -99.5058331097143 535
-265.01572263829706 -99.5058331097143 535
-264.3893439508238 -99.5058331097143 535
-267.70708437009216 -100.99377080107452 543
-267.07133927233895 -100.99377080107452 543
-266.4355941745857 -100.99377080107452 543
-265.7998490768324 -100.99377080107452 543
-265.1641039790792 -100.99377080107452 543
-264.5283588813259 -100.99377080107452 543
-263.89261378357264 -100.99377080107452 543
-263.2568686858194 -100.99377080107452 543
-266.97395989063074 -102.66770070385476 552
-266.3276775813125 -102.66770070385476 552
-270.4944640269218 -104.52762281805502 562
-223.69978051085255 -88.16030821309268 474
-216.55404540677526 -85.55641725321229 460
-216.01547681567672 -85.55641725321229 460
-215.4769082245782 -85.55641725321229 460
-214.9383396334797 -85.55641725321229 460
-261.94058983873526 -104.52762281805502 562
-310.32567612859583 -125.73073491993806 676
-309.53421445993797 -125.73073491993806 676
-307.95129112262237 -125.73073491993806 676
-301.2529096567729 -123.31283617147771 663
-234.76155993016104 -96.34396551557384 518
-234.1550848645327 -96.34396551557384 518
-229.94168146224177 -94.85602782421364 510
-229.3445728068934 -94.85602782421364 510
-232.33565966764772 -96.34396551557384 518
-328.59053304599354 -113.48089922322431 614
-289.95816279145606 -100.35851511109252 543
-289.3224176937028 -100.35851511109252 543
-284.4334619499687 -98.87993661958471 535
-283.80708326249544 -98.87993661958471 535
-283.18070457502216 -98.87993661958471 535
-277.80107554551535 -97.21653581663841 526
-286.14369220493654 -100.35851511109252 543
-290.24012302608685 -102.0219159140388 552
-289.5938407167686 -102.0219159140388 552
-288.9475584074504 -102.0219159140388 552
-283.6007118139235 -100.35851511109252 543
-278.7960537627092 -98.87993661958471 535
-278.16967507523594 -98.87993661958471 535
-277.54329638776267 -98.87993661958471 535
-276.9169177002894 -98.87993661958471 535
-276.2905390128161 -98.87993661958471 535
-275.66416032534283 -98.87993661958471 535
-275.0377816378695 -98.87993661958471 535
-274.4114029503962 -98.87993661958471 535
-269.179294882799 -97.21653581663841 526
-268.5634534068907 -97.21653581663841 526
-267.9476119309824 -97.21653581663841 526
-267.3317704550741 -97.21653581663841 526
-266.71592897916577 -97.21653581663841 526
-266.1000875032575 -97.21653581663841 526
-270.0267521380833 -98.87993661958471 535
-269.40037345061 -98.87993661958471 535
-268.7739947631367 -98.87993661958471 535
-268.14761607566345 -98.87993661958471 535
-267.5212373881902 -98.87993661958471 535
-266.8948587007169 -98.87993661958471 535
-266.2684800132436 -98.87993661958471 535
-265.64210132577034 -98.87993661958471 535
-265.01572263829706 -98.87993661958471 535
-268.34282946784543 -100.35851511109252 543
-267.70708437009216 -100.35851511109252 543
-267.07133927233895 -100.35851511109252 543
-266.4355941745857 -100.35851511109252 543
-265.7998490768324 -100.35851511109252 543
-265.1641039790792 -100.35851511109252 543
-268.91280681858547 -102.0219159140388 552
-273.12642531559453 -103.87013902842355 562
-267.620242199949 -102.0219159140388 552
-271.81044467125815 -103.87013902842355 562
-271.15245434908996 -103.87013902842355 562
-275.3075327818492 -105.71836214280832 572
-223.14482070176408 -87.60577562183767 474
-222.5898608926756 -87.60577562183767 474
-215.4769082245782 -85.01826326169899 460
-262.59858016090345 -103.87013902842355 562
-310.32567612859583 -124.93988253240983 676
-309.53421445993797 -124.93988253240983 676
-307.95129112262237 -124.93988253240983 676
-301.2529096567729 -122.53719248370963 663
-234.76155993016104 -95.7379573251306 518
-234.1550848645327 -95.7379573251306 518
-229.94168146224177 -94.2593788336228 510
-229.3445728068934 -94.2593788336228 510
-289.95816279145606 -99.72325942111051 543
-289.3224176937028 -99.72325942111051 543
-288.6866725959496 -99.72325942111051 543
-288.0509274981963 -99.72325942111051 543
-287.41518240044303 -99.72325942111051 543
-286.7794373026898 -99.72325942111051 543
-286.14369220493654 -99.72325942111051 543
-290.24012302608685 -101.37613112422284 552
-288.9475584074504 -101.37613112422284 552
-288.3012760981322 -101.37613112422284 552
-282.9649667161703 -99.72325942111051 543
-282.329221618417 -99.72325942111051 543
-281.69347652066375 -99.72325942111051 543
-281.05773142291054 -99.72325942111051 543
-280.42198632515726 -99.72325942111051 543
-279.786241227404 -99.72325942111051 543
-279.1504961296508 -99.72325942111051 543
-278.5147510318975 -99.72325942111051 543
-277.87900593414423 -99.72325942111051 543
-277.243260836391 -99.72325942111051 543
-276.60751573863774 -99.72325942111051 543
-275.9717706408845 -99.72325942111051 543
-275.33602554313126 -99.72325942111051 543
-274.700280445378 -99.72325942111051 543
-274.0645353476247 -99.72325942111051 543
-273.4287902498715 -99.72325942111051 543
-272.7930451521182 -99.72325942111051 543
-272.15730005436495 -99.72325942111051 543
-271.5215549566117 -99.72325942111051 543
-270.88580985885847 -99.72325942111051 543
-270.2500647611052 -99.72325942111051 543
-269.6143196633519 -99.72325942111051 543
-268.9785745655987 -99.72325942111051 543
-268.34282946784543 -99.72325942111051 543
-267.70708437009216 -99.72325942111051 543
-267.07133927233895 -99.72325942111051 543
-266.4355941745857 -99.72325942111051 543
-270.2053714372219 -101.37613112422284 552
-269.5590891279037 -101.37613112422284 552
-273.7844156377627 -103.21265523879208 562
-273.12642531559453 -103.21265523879208 562
-272.46843499342634 -103.21265523879208 562
-276.6469294518855 -105.04917935336135 572
-275.97723111686736 -105.04917935336135 572
-223.14482070176408 -87.05124303058265 474
-309.53421445993797 -124.14903014488158 676
-307.95129112262237 -124.14903014488158 676
-307.1598294539645 -124.14903014488158 676
-234.76155993016104 -95.13194913468736 518
-234.1550848645327 -95.13194913468736 518
-229.94168146224177 -93.66272984303198 510
-229.3445728068934 -93.66272984303198 510
-294.7640991913144 -100.73034633440687 552
-289.3224176937028 -99.08800373112851 543
-288.6866725959496 -99.08800373112851 543
-288.0509274981963 -99.08800373112851 543
-287.41518240044303 -99.08800373112851 543
-291.5326876447233 -100.73034633440687 552
-290.8864053354051 -100.73034633440687 552
-288.9475584074504 -100.73034633440687 552
-288.3012760981322 -100.73034633440687 552
-287.65499378881395 -100.73034633440687 552
-287.00871147949573 -100.73034633440687 552
-281.69347652066375 -99.08800373112851 543
-281.05773142291054 -99.08800373112851 543
-280.42198632515726 -99.08800373112851 543
-279.786241227404 -99.08800373112851 543
-279.1504961296508 -99.08800373112851 543
-283.1310176235864 -100.73034633440687 552
-282.48473531426816 -100.73034633440687 552
-281.83845300494994 -100.73034633440687 552
-281.1921706956317 -100.73034633440687 552
-280.5458883863135 -100.73034633440687 552
-279.89960607699527 -100.73034633440687 552
-274.700280445378 -99.08800373112851 543
-274.0645353476247 -99.08800373112851 543
-273.4287902498715 -99.08800373112851 543
-272.7930451521182 -99.08800373112851 543
-276.66819453040415 -100.73034633440687 552
-276.0219122210859 -100.73034633440687 552
-275.3756299117677 -100.73034633440687 552
-274.7293476024495 -100.73034633440687 552
-274.08306529313126 -100.73034633440687 552
-273.43678298381303 -100.73034633440687 552
-272.7905006744948 -100.73034633440687 552
-272.1442183651766 -100.73034633440687 552
-271.49793605585836 -100.73034633440687 552
-270.85165374654014 -100.73034633440687 552
-270.2053714372219 -100.73034633440687 552
-274.4424059599309 -102.55517144916062 562
-273.7844156377627 -102.55517144916062 562
-273.12642531559453 -102.55517144916062 562
-272.46843499342634 -102.55517144916062 562
-276.6469294518855 -104.37999656391437 572
-275.97723111686736 -104.37999656391437 572
-309.53421445993797 -123.35817775735335 676
-307.95129112262237 -123.35817775735335 676
-307.1598294539645 -123.35817775735335 676
-306.3683677853067 -123.35817775735335 676
-233.54860979890438 -94.52594094424413 518
-328.59053304599354 -111.32594345720801 614
-327.87166105700555 -111.32594345720801 614
-294.1178168819962 -100.08456154459093 552
-288.6866725959496 -98.4527480411465 543
-292.82525226335974 -100.08456154459093 552
-292.1789699540415 -100.08456154459093 552
-291.5326876447233 -100.08456154459093 552
-287.00871147949573 -100.08456154459093 552
-286.3624291701775 -100.08456154459093 552
-285.7161468608593 -100.08456154459093 552
-285.06986455154106 -100.08456154459093 552
-284.42358224222284 -100.08456154459093 552
-283.7772999329046 -100.08456154459093 552
-288.260202725463 -101.89768765952915 562
-286.9442220811266 -101.89768765952915 562
-286.28623175895837 -101.89768765952915 562
-285.6282414367902 -101.89768765952915 562
-279.89960607699527 -100.08456154459093 552
-279.25332376767705 -100.08456154459093 552
-278.6070414583588 -100.08456154459093 552
-277.9607591490406 -100.08456154459093 552
-277.3144768397224 -100.08456154459093 552
-276.66819453040415 -100.08456154459093 552
-276.0219122210859 -100.08456154459093 552
-275.3756299117677 -100.08456154459093 552
-274.7293476024495 -100.08456154459093 552
-274.08306529313126 -100.08456154459093 552
-273.43678298381303 -100.08456154459093 552
-272.7905006744948 -100.08456154459093 552
-272.1442183651766 -100.08456154459093 552
-271.49793605585836 -100.08456154459093 552
-275.7583866042673 -101.89768765952915 562
-275.1003962820991 -101.89768765952915 562
-279.3257227919582 -103.7108137744674 572
-278.65602445694 -103.7108137744674 572
-277.9863261219218 -103.7108137744674 572
-210.15016812794968 -80.14017428027027 442
-227.65539253572607 -87.03005351703558 480
-227.09340791892762 -87.03005351703558 480
-248.24068470191654 -95.37043364575148 526
-225.96943868533072 -87.03005351703558 480
-309.53421445993797 -122.5673253698251 676
-329.3094050349816 -110.60762486853591 614
-328.59053304599354 -110.60762486853591 614
-327.87166105700555 -110.60762486853591 614
-299.44603820232226 -101.24020386989768 562
-298.78804788015407 -101.24020386989768 562
-298.1300575579859 -101.24020386989768 562
-297.4720672358177 -101.24020386989768 562
-296.8140769136495 -101.24020386989768 562
-294.1821156249767 -101.24020386989768 562
-292.2081446584721 -101.24020386989768 562
-286.3624291701775 -99.43877675477496 552
-285.7161468608593 -99.43877675477496 552
-285.06986455154106 -99.43877675477496 552
-284.42358224222284 -99.43877675477496 552
-283.7772999329046 -99.43877675477496 552
-288.260202725463 -101.24020386989768 562
-286.9442220811266 -101.24020386989768 562
-286.28623175895837 -101.24020386989768 562
-285.6282414367902 -101.24020386989768 562
-284.970251114622 -101.24020386989768 562
-279.25332376767705 -99.43877675477496 552
-278.6070414583588 -99.43877675477496 552
-277.9607591490406 -99.43877675477496 552
-277.3144768397224 -99.43877675477496 552
-276.66819453040415 -99.43877675477496 552
-276.0219122210859 -99.43877675477496 552
-275.3756299117677 -99.43877675477496 552
-274.7293476024495 -99.43877675477496 552
-274.08306529313126 -99.43877675477496 552
-273.43678298381303 -99.43877675477496 552
-272.7905006744948 -99.43877675477496 552
-272.1442183651766 -99.43877675477496 552
-271.49793605585836 -99.43877675477496 552
-275.7583866042673 -101.24020386989768 562
-279.99542112697634 -103.04163098502043 572
-279.3257227919582 -103.04163098502043 572
-227.65539253572607 -86.46850152589127 480
-227.09340791892762 -86.46850152589127 480
-248.24068470191654 -94.75506625545584 526
-225.96943868533072 -86.46850152589127 480
-329.3094050349816 -109.88930627986382 614
-327.87166105700555 -109.88930627986382 614
-299.44603820232226 -100.58272008026621 562
-298.78804788015407 -100.58272008026621 562
-298.1300575579859 -100.58272008026621 562
-297.4720672358177 -100.58272008026621 562
-296.8140769136495 -100.58272008026621 562
-294.1821156249767 -100.58272008026621 562
-292.2081446584721 -100.58272008026621 562
-286.3624291701775 -98.792991964959 552
-285.7161468608593 -98.792991964959 552
-285.06986455154106 -98.792991964959 552
-284.42358224222284 -98.792991964959 552
-288.9181930476312 -100.58272008026621 562
-288.260202725463 -100.58272008026621 562
-287.6022124032948 -100.58272008026621 562
-286.9442220811266 -100.58272008026621 562
-286.28623175895837 -100.58272008026621 562
-285.6282414367902 -100.58272008026621 562
-284.970251114622 -100.58272008026621 562
-284.3122607924538 -100.58272008026621 562
-283.6542704702856 -100.58272008026621 562
-277.9607591490406 -98.792991964959 552
-277.3144768397224 -98.792991964959 552
-276.66819453040415 -98.792991964959 552
-276.0219122210859 -98.792991964959 552
-280.36431885944467 -100.58272008026621 562
-274.7293476024495 -98.792991964959 552
-274.08306529313126 -98.792991964959 552
-273.43678298381303 -98.792991964959 552
-277.7323575707719 -100.58272008026621 562
-277.0743672486037 -100.58272008026621 562
-276.41637692643553 -100.58272008026621 562
-280.6651194619945 -102.37244819557345 572
-279.99542112697634 -102.37244819557345 572
-243.07807187990568 -91.27613388066865 510
-199.69020500845897 -75.16858084290358 420
-199.19846846876032 -75.16858084290358 420
-198.70673192906168 -75.16858084290358 420
-198.21499538936303 -75.16858084290358 420
-213.72942742320862 -81.25365643494817 454
-329.3094050349816 -109.17098769119171 614
-328.59053304599354 -109.17098769119171 614
-300.10402852449045 -99.92523629063476 562
-299.44603820232226 -99.92523629063476 562
-298.78804788015407 -99.92523629063476 562
-298.1300575579859 -99.92523629063476 562
-297.4720672358177 -99.92523629063476 562
-296.8140769136495 -99.92523629063476 562
-296.15608659148126 -99.92523629063476 562
-295.49809626931307 -99.92523629063476 562
-288.9475584074504 -98.14720717514304 552
-293.5241253028085 -99.92523629063476 562
-292.2081446584721 -99.92523629063476 562
-286.3624291701775 -98.14720717514304 552
-285.7161468608593 -98.14720717514304 552
-285.06986455154106 -98.14720717514304 552
-284.42358224222284 -98.14720717514304 552
-288.9181930476312 -99.92523629063476 562
-288.260202725463 -99.92523629063476 562
-287.6022124032948 -99.92523629063476 562
-286.9442220811266 -99.92523629063476 562
-286.28623175895837 -99.92523629063476 562
-285.6282414367902 -99.92523629063476 562
-284.970251114622 -99.92523629063476 562
-284.3122607924538 -99.92523629063476 562
-283.6542704702856 -99.92523629063476 562
-282.9962801481174 -99.92523629063476 562
-282.33828982594923 -99.92523629063476 562
-281.68029950378104 -99.92523629063476 562
-281.02230918161285 -99.92523629063476 562
-280.36431885944467 -99.92523629063476 562
-279.7063285372765 -99.92523629063476 562
-279.0483382151083 -99.92523629063476 562
-278.3903478929401 -99.92523629063476 562
-282.67421446704896 -101.70326540612649 572
-282.0045161320308 -101.70326540612649 572
-281.33481779701265 -101.70326540612649 572
-280.6651194619945 -101.70326540612649 572
-284.8904459718535 -103.4812945216182 582
-243.07807187990568 -90.67948489007782 510
-199.69020500845897 -74.67722285065231 420
-180.70146782523256 -67.7429093002346 381
-180.25539253564878 -67.7429093002346 381
-190.6639479459587 -71.83237626586556 404
-213.72942742320862 -80.72252184332417 454
-293.49928915173473 -111.12681971823261 625
-329.3094050349816 -108.45266910251961 614
-328.59053304599354 -108.45266910251961 614
-300.10402852449045 -99.26775250100329 562
-299.44603820232226 -99.26775250100329 562
-298.78804788015407 -99.26775250100329 562
-298.1300575579859 -99.26775250100329 562
-296.8140769136495 -99.26775250100329 562
-296.15608659148126 -99.26775250100329 562
-288.9475584074504 -97.50142238532707 552
-293.5241253028085 -99.26775250100329 562
-292.8661349806403 -99.26775250100329 562
-287.00871147949573 -97.50142238532707 552
-286.3624291701775 -97.50142238532707 552
-285.7161468608593 -97.50142238532707 552
-285.06986455154106 -97.50142238532707 552
-284.42358224222284 -97.50142238532707 552
-288.9181930476312 -99.26775250100329 562
-288.260202725463 -99.26775250100329 562
-287.6022124032948 -99.26775250100329 562
-286.9442220811266 -99.26775250100329 562
-286.28623175895837 -99.26775250100329 562
-285.6282414367902 -99.26775250100329 562
-284.970251114622 -99.26775250100329 562
-284.3122607924538 -99.26775250100329 562
-283.6542704702856 -99.26775250100329 562
-282.9962801481174 -99.26775250100329 562
-282.33828982594923 -99.26775250100329 562
-281.68029950378104 -99.26775250100329 562
-281.02230918161285 -99.26775250100329 562
-280.36431885944467 -99.26775250100329 562
-284.6833094721034 -101.03408261667951 572
-284.01361113708526 -101.03408261667951 572
-283.3439128020671 -101.03408261667951 572
-282.67421446704896 -101.03408261667951 572
-282.0045161320308 -101.03408261667951 572
-281.33481779701265 -101.03408261667951 572
-285.57185231972164 -102.80041273235572 582
-284.8904459718535 -102.80041273235572 582
-243.07807187990568 -90.08283589948698 510
-181.14754311481633 -67.2971774072638 381
-180.70146782523256 -67.2971774072638 381
-180.25539253564878 -67.2971774072638 381
-190.6639479459587 -71.35973667331909 404
-190.19094422682002 -71.35973667331909 404
-293.49928915173473 -110.39563222976345 625
-329.3094050349816 -107.73435051384752 614
-328.59053304599354 -107.73435051384752 614
