-258.17090790379336 -105.44056063094855 543
-257.53516280604015 -105.44056063094855 543
-256.8994177082869 -105.44056063094855 543
-260.5111367974485 -107.18819423256647 552
-261.94058983873526 -109.13000934547529 562
-261.2825995165671 -109.13000934547529 562
-260.6246091943989 -109.13000934547529 562
-264.5923594215586 -111.0718244583841 572
-259.3086285500625 -109.13000934547529 562
-258.6506382278943 -109.13000934547529 562
-257.99264790572613 -109.13000934547529 562
-303.5816334126315 -128.7423419858543 663
-302.80539216067865 -128.7423419858543 663
-308.12275119773903 -110.40264166893714 572
-307.4530528627209 -110.40264166893714 572
-306.7833545277027 -110.40264166893714 572
-277.2148145241444 -99.98001465823326 518
-276.60833945851607 -99.98001465823326 518
-276.00186439288774 -99.98001465823326 518
-275.3953893272594 -99.98001465823326 518
-274.7889142616311 -99.98001465823326 518
-274.18243919600275 -99.98001465823326 518
-273.5759641303744 -99.98001465823326 518
-272.9694890647461 -99.98001465823326 518
-272.36301399911775 -99.98001465823326 518
-271.7565389334894 -99.98001465823326 518
-271.1500638678611 -99.98001465823326 518
-270.54358880223276 -99.98001465823326 518
-269.93711373660443 -99.98001465823326 518
-269.3306386709761 -99.98001465823326 518
-268.72416360534777 -99.98001465823326 518
-268.11768853971944 -99.98001465823326 518
-267.5112134740911 -99.98001465823326 518
-266.9047384084627 -99.98001465823326 518
-266.2982633428344 -99.98001465823326 518
-265.69178827720606 -99.98001465823326 518
-265.0853132115777 -99.98001465823326 518
-268.5634534068907 -101.5241075487079 526
-267.9476119309824 -101.5241075487079 526
-267.3317704550741 -101.5241075487079 526
-266.71592897916577 -101.5241075487079 526
-266.1000875032575 -101.5241075487079 526
-265.4842460273492 -101.5241075487079 526
-264.86840455144085 -101.5241075487079 526
-264.2525630755326 -101.5241075487079 526
-263.63672159962425 -101.5241075487079 526
-263.0208801237159 -101.5241075487079 526
-262.40503864780766 -101.5241075487079 526
-266.2684800132436 -103.26121205049189 535
-265.64210132577034 -103.26121205049189 535
-265.01572263829706 -103.26121205049189 535
-264.3893439508238 -103.26121205049189 535
-263.7629652633505 -103.26121205049189 535
-263.13658657587723 -103.26121205049189 535
-262.51020788840395 -103.26121205049189 535
-261.8838292009307 -103.26121205049189 535
-261.2574505134574 -103.26121205049189 535
-260.6310718259841 -103.26121205049189 535
-260.00469313851085 -103.26121205049189 535
-259.37831445103757 -103.26121205049189 535
-258.7519357635643 -103.26121205049189 535
-258.12555707609096 -103.26121205049189 535
-257.4991783886177 -103.26121205049189 535
-256.8727997011444 -103.26121205049189 535
-256.2464210136711 -103.26121205049189 535
-259.4423980992999 -104.80530494096655 543
-258.80665300154664 -104.80530494096655 543
-258.17090790379336 -104.80530494096655 543
-261.80370141608495 -106.54240944275051 552
-265.8885317717444 -108.47252555584382 562
-257.2797252508574 -106.54240944275051 552
-261.2825995165671 -108.47252555584382 562
-260.6246091943989 -108.47252555584382 562
-264.5923594215586 -110.40264166893714 572
-259.3086285500625 -108.47252555584382 562
-258.6506382278943 -108.47252555584382 562
-253.40203139494804 -106.54240944275051 552
-303.5816334126315 -127.96669829808621 663
-302.80539216067865 -127.96669829808621 663
-302.02915090872574 -127.96669829808621 663
-307.1598294539645 -130.4758492451075 676
-300.47666840482003 -127.96669829808621 663
-237.77137961147528 -101.5241075487079 526
-307.4530528627209 -109.73345887949016 572
-306.7833545277027 -109.73345887949016 572
-277.2148145241444 -99.37400646779002 518
-276.60833945851607 -99.37400646779002 518
-276.00186439288774 -99.37400646779002 518
-275.3953893272594 -99.37400646779002 518
-274.7889142616311 -99.37400646779002 518
-274.18243919600275 -99.37400646779002 518
-273.5759641303744 -99.37400646779002 518
-272.9694890647461 -99.37400646779002 518
-272.36301399911775 -99.37400646779002 518
-271.7565389334894 -99.37400646779002 518
-271.1500638678611 -99.37400646779002 518
-270.54358880223276 -99.37400646779002 518
-269.93711373660443 -99.37400646779002 518
-269.3306386709761 -99.37400646779002 518
-268.72416360534777 -99.37400646779002 518
-268.11768853971944 -99.37400646779002 518
-267.5112134740911 -99.37400646779002 518
-266.9047384084627 -99.37400646779002 518
-266.2982633428344 -99.37400646779002 518
-265.69178827720606 -99.37400646779002 518
-265.0853132115777 -99.37400646779002 518
-268.5634534068907 -100.90874015841227 526
-267.9476119309824 -100.90874015841227 526
-267.3317704550741 -100.90874015841227 526
-266.71592897916577 -100.90874015841227 526
-266.1000875032575 -100.90874015841227 526
-265.4842460273492 -100.90874015841227 526
-269.40037345061 -102.6353155603623 535
-268.7739947631367 -102.6353155603623 535
-268.14761607566345 -102.6353155603623 535
-267.5212373881902 -102.6353155603623 535
-266.8948587007169 -102.6353155603623 535
-266.2684800132436 -102.6353155603623 535
-265.64210132577034 -102.6353155603623 535
-265.01572263829706 -102.6353155603623 535
-264.3893439508238 -102.6353155603623 535
-263.7629652633505 -102.6353155603623 535
-263.13658657587723 -102.6353155603623 535
-262.51020788840395 -102.6353155603623 535
-261.8838292009307 -102.6353155603623 535
-261.2574505134574 -102.6353155603623 535
-260.6310718259841 -102.6353155603623 535
-260.00469313851085 -102.6353155603623 535
-259.37831445103757 -102.6353155603623 535
-258.7519357635643 -102.6353155603623 535
-258.12555707609096 -102.6353155603623 535
-257.4991783886177 -102.6353155603623 535
-256.8727997011444 -102.6353155603623 535
-260.0781431970531 -104.17004925098453 543
-259.4423980992999 -104.17004925098453 543
-258.80665300154664 -104.17004925098453 543
-262.4499837254032 -105.89662465293456 552
-266.54652209391264 -107.81504176621235 562
-265.8885317717444 -107.81504176621235 562
-264.572551127408 -107.81504176621235 562
-216.01547681567672 -88.24718721077879 460
-215.4769082245782 -88.24718721077879 460
-257.9260075601756 -105.89662465293456 552
-257.2797252508574 -105.89662465293456 552
-256.63344294153916 -105.89662465293456 552
-260.6246091943989 -107.81504176621235 562
-259.9666188722307 -107.81504176621235 562
-259.3086285500625 -107.81504176621235 562
-254.04831370426626 -105.89662465293456 552
-253.40203139494804 -105.89662465293456 552
-303.5816334126315 -127.19105461031813 663
-302.80539216067865 -127.19105461031813 663
-302.02915090872574 -127.19105461031813 663
-307.4530528627209 -109.06427609004318 572
-306.7833545277027 -109.06427609004318 572
-277.2148145241444 -98.76799827734679 518
-276.60833945851607 -98.76799827734679 518
-276.00186439288774 -98.76799827734679 518
-275.3953893272594 -98.76799827734679 518
-274.7889142616311 -98.76799827734679 518
-274.18243919600275 -98.76799827734679 518
-273.5759641303744 -98.76799827734679 518
-272.9694890647461 -98.76799827734679 518
-272.36301399911775 -98.76799827734679 518
-271.7565389334894 -98.76799827734679 518
-271.1500638678611 -98.76799827734679 518
-270.54358880223276 -98.76799827734679 518
-269.93711373660443 -98.76799827734679 518
-269.3306386709761 -98.76799827734679 518
-268.72416360534777 -98.76799827734679 518
-268.11768853971944 -98.76799827734679 518
-267.5112134740911 -98.76799827734679 518
-266.9047384084627 -98.76799827734679 518
-266.2982633428344 -98.76799827734679 518
-265.69178827720606 -98.76799827734679 518
-265.0853132115777 -98.76799827734679 518
-268.5634534068907 -100.29337276811663 526
-267.9476119309824 -100.29337276811663 526
-267.3317704550741 -100.29337276811663 526
-266.71592897916577 -100.29337276811663 526
-270.65313082555656 -102.0094190702327 535
-270.0267521380833 -102.0094190702327 535
-269.40037345061 -102.0094190702327 535
-268.7739947631367 -102.0094190702327 535
-268.14761607566345 -102.0094190702327 535
-267.5212373881902 -102.0094190702327 535
-266.8948587007169 -102.0094190702327 535
-266.2684800132436 -102.0094190702327 535
-265.64210132577034 -102.0094190702327 535
-265.01572263829706 -102.0094190702327 535
-264.3893439508238 -102.0094190702327 535
-263.7629652633505 -102.0094190702327 535
-263.13658657587723 -102.0094190702327 535
-262.51020788840395 -102.0094190702327 535
-261.8838292009307 -102.0094190702327 535
-261.2574505134574 -102.0094190702327 535
-260.6310718259841 -102.0094190702327 535
-260.00469313851085 -102.0094190702327 535
-259.37831445103757 -102.0094190702327 535
-258.7519357635643 -102.0094190702327 535
-261.9853784903129 -103.53479356100253 543
-261.34963339255967 -103.53479356100253 543
-260.7138882948064 -103.53479356100253 543
-260.0781431970531 -103.53479356100253 543
-263.7425483440396 -105.2508398631186 552
-263.0962660347214 -105.2508398631186 552
-267.20451241608083 -107.15755797658088 562
-265.8885317717444 -107.15755797658088 562
-265.2305414495762 -107.15755797658088 562
-219.84943305426967 -89.0437358986891 467
-216.01547681567672 -87.70903321926549 460
-212.66633985643153 -86.56500235118813 454
-261.94058983873526 -107.15755797658088 562
-256.63344294153916 -105.2508398631186 552
-303.5816334126315 -126.41541092255005 663
-302.80539216067865 -126.41541092255005 663
-302.02915090872574 -126.41541092255005 663
-313.5211276970939 -131.56354982889823 690
-312.71327481044614 -131.56354982889823 690
-311.9054219237984 -131.56354982889823 690
-311.0975690371506 -131.56354982889823 690
-286.9389766998618 -101.3835225801031 535
-277.2148145241444 -98.16199008690356 518
-276.60833945851607 -98.16199008690356 518
-276.00186439288774 -98.16199008690356 518
-275.3953893272594 -98.16199008690356 518
-274.7889142616311 -98.16199008690356 518
-274.18243919600275 -98.16199008690356 518
-273.5759641303744 -98.16199008690356 518
-272.9694890647461 -98.16199008690356 518
-272.36301399911775 -98.16199008690356 518
-271.7565389334894 -98.16199008690356 518
-271.1500638678611 -98.16199008690356 518
-270.54358880223276 -98.16199008690356 518
-269.93711373660443 -98.16199008690356 518
-269.3306386709761 -98.16199008690356 518
-268.72416360534777 -98.16199008690356 518
-268.11768853971944 -98.16199008690356 518
-267.5112134740911 -98.16199008690356 518
-266.9047384084627 -98.16199008690356 518
-266.2982633428344 -98.16199008690356 518
-265.69178827720606 -98.16199008690356 518
-265.0853132115777 -98.16199008690356 518
-264.4788381459494 -98.16199008690356 518
-267.9476119309824 -99.67800537782098 526
-267.3317704550741 -99.67800537782098 526
-266.71592897916577 -99.67800537782098 526
-270.65313082555656 -101.3835225801031 535
-270.0267521380833 -101.3835225801031 535
-269.40037345061 -101.3835225801031 535
-268.7739947631367 -101.3835225801031 535
-268.14761607566345 -101.3835225801031 535
-267.5212373881902 -101.3835225801031 535
-266.8948587007169 -101.3835225801031 535
-266.2684800132436 -101.3835225801031 535
-265.64210132577034 -101.3835225801031 535
-265.01572263829706 -101.3835225801031 535
-264.3893439508238 -101.3835225801031 535
-263.7629652633505 -101.3835225801031 535
-263.13658657587723 -101.3835225801031 535
-266.4355941745857 -102.89953787102053 543
-265.7998490768324 -102.89953787102053 543
-265.1641039790792 -102.89953787102053 543
-264.5283588813259 -102.89953787102053 543
-263.89261378357264 -102.89953787102053 543
-263.2568686858194 -102.89953787102053 543
-262.62112358806615 -102.89953787102053 543
-261.9853784903129 -102.89953787102053 543
-265.6813952719943 -104.60505507330264 552
-260.7138882948064 -102.89953787102053 543
-264.38883065335784 -104.60505507330264 552
-263.7425483440396 -104.60505507330264 552
-267.862502738249 -106.50007418694942 562
-267.20451241608083 -106.50007418694942 562
-266.54652209391264 -106.50007418694942 562
-265.8885317717444 -106.50007418694942 562
-265.2305414495762 -106.50007418694942 562
-223.14482070176408 -89.8239059868577 474
-216.01547681567672 -87.1708792277522 460
-215.4769082245782 -87.1708792277522 460
-261.2825995165671 -106.50007418694942 562
-309.53421445993797 -128.10329208252278 676
-308.74275279128017 -128.10329208252278 676
-307.95129112262237 -128.10329208252278 676
-313.5211276970939 -130.75631884162829 690
-306.3683677853067 -128.10329208252278 676
-311.9054219237984 -130.75631884162829 690
-311.0975690371506 -130.75631884162829 690
-310.2897161505028 -130.75631884162829 690
-306.7833545277027 -107.72591051114924 572
-277.2148145241444 -97.55598189646031 518
-276.60833945851607 -97.55598189646031 518
-276.00186439288774 -97.55598189646031 518
-275.3953893272594 -97.55598189646031 518
-274.7889142616311 -97.55598189646031 518
-274.18243919600275 -97.55598189646031 518
-273.5759641303744 -97.55598189646031 518
-272.9694890647461 -97.55598189646031 518
-272.36301399911775 -97.55598189646031 518
-271.7565389334894 -97.55598189646031 518
-271.1500638678611 -97.55598189646031 518
-270.54358880223276 -97.55598189646031 518
-269.93711373660443 -97.55598189646031 518
-269.3306386709761 -97.55598189646031 518
-268.72416360534777 -97.55598189646031 518
-268.11768853971944 -97.55598189646031 518
-267.5112134740911 -97.55598189646031 518
-266.9047384084627 -97.55598189646031 518
-266.2982633428344 -97.55598189646031 518
-265.69178827720606 -97.55598189646031 518
-265.0853132115777 -97.55598189646031 518
-264.4788381459494 -97.55598189646031 518
-267.9476119309824 -99.06263798752533 526
-267.3317704550741 -99.06263798752533 526
-266.71592897916577 -99.06263798752533 526
-270.65313082555656 -100.7576260899735 535
-270.0267521380833 -100.7576260899735 535
-269.40037345061 -100.7576260899735 535
-268.7739947631367 -100.7576260899735 535
-268.14761607566345 -100.7576260899735 535
-267.5212373881902 -100.7576260899735 535
-266.8948587007169 -100.7576260899735 535
-266.2684800132436 -100.7576260899735 535
-265.64210132577034 -100.7576260899735 535
-265.01572263829706 -100.7576260899735 535
-264.3893439508238 -100.7576260899735 535
-267.70708437009216 -102.26428218103852 543
-267.07133927233895 -102.26428218103852 543
-266.4355941745857 -102.26428218103852 543
-265.7998490768324 -102.26428218103852 543
-265.1641039790792 -102.26428218103852 543
-264.5283588813259 -102.26428218103852 543
-263.89261378357264 -102.26428218103852 543
-263.2568686858194 -102.26428218103852 543
-262.62112358806615 -102.26428218103852 543
-266.3276775813125 -103.95927028348667 552
-265.6813952719943 -103.95927028348667 552
-266.54652209391264 -105.84259039731795 562
-248.85652617782483 -99.06263798752533 526
-223.69978051085255 -89.2693733956027 474
-223.14482070176408 -89.2693733956027 474
-219.30266885417618 -87.9510493159208 467
-309.53421445993797 -127.31243969499454 676
-308.74275279128017 -127.31243969499454 676
-314.3289805837417 -129.94908785435834 690
-313.5211276970939 -129.94908785435834 690
-312.71327481044614 -129.94908785435834 690
-311.9054219237984 -129.94908785435834 690
-311.0975690371506 -129.94908785435834 690
-310.2897161505028 -129.94908785435834 690
-312.82810623444675 -108.92834883571803 582
-286.9389766998618 -100.13172959984391 535
-277.2148145241444 -96.94997370601708 518
-276.60833945851607 -96.94997370601708 518
-276.00186439288774 -96.94997370601708 518
-275.3953893272594 -96.94997370601708 518
-274.7889142616311 -96.94997370601708 518
-274.18243919600275 -96.94997370601708 518
-273.5759641303744 -96.94997370601708 518
-272.9694890647461 -96.94997370601708 518
-272.36301399911775 -96.94997370601708 518
-271.7565389334894 -96.94997370601708 518
-271.1500638678611 -96.94997370601708 518
-270.54358880223276 -96.94997370601708 518
-269.93711373660443 -96.94997370601708 518
-269.3306386709761 -96.94997370601708 518
-268.72416360534777 -96.94997370601708 518
-268.11768853971944 -96.94997370601708 518
-267.5112134740911 -96.94997370601708 518
-266.9047384084627 -96.94997370601708 518
-266.2982633428344 -96.94997370601708 518
-265.69178827720606 -96.94997370601708 518
-265.0853132115777 -96.94997370601708 518
-264.4788381459494 -96.94997370601708 518
-267.9476119309824 -98.44727059722969 526
-267.3317704550741 -98.44727059722969 526
-266.71592897916577 -98.44727059722969 526
-266.1000875032575 -98.44727059722969 526
-270.0267521380833 -100.13172959984391 535
-269.40037345061 -100.13172959984391 535
-268.7739947631367 -100.13172959984391 535
-268.14761607566345 -100.13172959984391 535
-267.5212373881902 -100.13172959984391 535
-266.8948587007169 -100.13172959984391 535
-266.2684800132436 -100.13172959984391 535
-265.64210132577034 -100.13172959984391 535
-265.01572263829706 -100.13172959984391 535
-268.34282946784543 -101.62902649105652 543
-267.70708437009216 -101.62902649105652 543
-267.07133927233895 -101.62902649105652 543
-266.4355941745857 -101.62902649105652 543
-265.7998490768324 -101.62902649105652 543
-265.1641039790792 -101.62902649105652 543
-264.5283588813259 -101.62902649105652 543
-263.89261378357264 -101.62902649105652 543
-263.2568686858194 -101.62902649105652 543
-266.97395989063074 -103.31348549367071 552
-266.3276775813125 -103.31348549367071 552
-270.4944640269218 -105.18510660768648 562
-268.5204930604172 -105.18510660768648 562
-267.862502738249 -105.18510660768648 562
-249.47236765373316 -98.44727059722969 526
-248.85652617782483 -98.44727059722969 526
-223.69978051085255 -88.71484080434769 474
-223.14482070176408 -88.71484080434769 474
-216.01547681567672 -86.09457124472559 460
-222.03490108358713 -88.71484080434769 474
-311.9085994659115 -126.5215873074663 676
-309.53421445993797 -126.5215873074663 676
-315.1368334703895 -129.1418568670884 690
-313.5211276970939 -129.1418568670884 690
-312.71327481044614 -129.1418568670884 690
-311.9054219237984 -129.1418568670884 690
-311.0975690371506 -129.1418568670884 690
-310.2897161505028 -129.1418568670884 690
-312.82810623444675 -108.24746704645555 582
-286.9389766998618 -99.5058331097143 535
-286.31259801238855 -99.5058331097143 535
-280.88028292505686 -97.83190320693406 526
-276.00186439288774 -96.34396551557384 518
-275.3953893272594 -96.34396551557384 518
-274.7889142616311 -96.34396551557384 518
-274.18243919600275 -96.34396551557384 518
-273.5759641303744 -96.34396551557384 518
-272.9694890647461 -96.34396551557384 518
-272.36301399911775 -96.34396551557384 518
-271.7565389334894 -96.34396551557384 518
-271.1500638678611 -96.34396551557384 518
-270.54358880223276 -96.34396551557384 518
-274.1060266900655 -97.83190320693406 526
-269.3306386709761 -96.34396551557384 518
-268.72416360534777 -96.34396551557384 518
-268.11768853971944 -96.34396551557384 518
-267.5112134740911 -96.34396551557384 518
-266.9047384084627 -96.34396551557384 518
-266.2982633428344 -96.34396551557384 518
-265.69178827720606 -96.34396551557384 518
-265.0853132115777 -96.34396551557384 518
-264.4788381459494 -96.34396551557384 518
-267.9476119309824 -97.83190320693406 526
-267.3317704550741 -97.83190320693406 526
-266.71592897916577 -97.83190320693406 526
-270.65313082555656 -99.5058331097143 535
-270.0267521380833 -99.5058331097143 535
-269.40037345061 -99.5058331097143 535
-268.7739947631367 -99.5058331097143 535
-268.14761607566345 -99.5058331097143 535
-267.5212373881902 -99.5058331097143 535
-266.8948587007169 -99.5058331097143 535
-266.2684800132436 -99.5058331097143 535
-265.64210132577034 -99.5058331097143 535
-268.9785745655987 -100.99377080107452 543
-268.34282946784543 -100.99377080107452 543
-267.70708437009216 -100.99377080107452 543
-267.07133927233895 -100.99377080107452 543
-266.4355941745857 -100.99377080107452 543
-265.7998490768324 -100.99377080107452 543
-265.1641039790792 -100.99377080107452 543
-264.5283588813259 -100.99377080107452 543
-268.26652450926724 -102.66770070385476 552
-267.620242199949 -102.66770070385476 552
-266.97395989063074 -102.66770070385476 552
-266.3276775813125 -102.66770070385476 552
-248.85652617782483 -97.83190320693406 526
-223.69978051085255 -88.16030821309268 474
-223.14482070176408 -88.16030821309268 474
-222.5898608926756 -88.16030821309268 474
-311.9085994659115 -125.73073491993806 676
-309.53421445993797 -125.73073491993806 676
-315.1368334703895 -128.33462587981845 690
-314.3289805837417 -128.33462587981845 690
-313.5211276970939 -128.33462587981845 690
-312.71327481044614 -128.33462587981845 690
-311.9054219237984 -128.33462587981845 690
-311.0975690371506 -128.33462587981845 690
-312.82810623444675 -107.56658525719307 582
-306.7833545277027 -105.71836214280832 572
-286.31259801238855 -98.87993661958471 535
-285.68621932491527 -98.87993661958471 535
-280.2644414491486 -97.21653581663841 526
-275.3953893272594 -95.7379573251306 518
-274.7889142616311 -95.7379573251306 518
-274.18243919600275 -95.7379573251306 518
-273.5759641303744 -95.7379573251306 518
-272.9694890647461 -95.7379573251306 518
-272.36301399911775 -95.7379573251306 518
-271.7565389334894 -95.7379573251306 518
-271.1500638678611 -95.7379573251306 518
-274.7218681659738 -97.21653581663841 526
-274.1060266900655 -97.21653581663841 526
-273.4901852141572 -97.21653581663841 526
-272.87434373824885 -97.21653581663841 526
-272.2585022623406 -97.21653581663841 526
-267.5112134740911 -95.7379573251306 518
-266.9047384084627 -95.7379573251306 518
-266.2982633428344 -95.7379573251306 518
-265.69178827720606 -95.7379573251306 518
-265.0853132115777 -95.7379573251306 518
-268.5634534068907 -97.21653581663841 526
-267.9476119309824 -97.21653581663841 526
-267.3317704550741 -97.21653581663841 526
-266.71592897916577 -97.21653581663841 526
-270.65313082555656 -98.87993661958471 535
-270.0267521380833 -98.87993661958471 535
-269.40037345061 -98.87993661958471 535
-268.7739947631367 -98.87993661958471 535
-268.14761607566345 -98.87993661958471 535
-267.5212373881902 -98.87993661958471 535
-266.8948587007169 -98.87993661958471 535
-270.2500647611052 -100.35851511109252 543
-269.6143196633519 -100.35851511109252 543
-268.9785745655987 -100.35851511109252 543
-268.34282946784543 -100.35851511109252 543
-267.70708437009216 -100.35851511109252 543
-267.07133927233895 -100.35851511109252 543
-270.85165374654014 -102.0219159140388 552
-270.2053714372219 -102.0219159140388 552
-269.5590891279037 -102.0219159140388 552
-268.91280681858547 -102.0219159140388 552
-268.26652450926724 -102.0219159140388 552
-267.620242199949 -102.0219159140388 552
-266.97395989063074 -102.0219159140388 552
-266.3276775813125 -102.0219159140388 552
-312.7000611345693 -124.93988253240983 676
-311.9085994659115 -124.93988253240983 676
-311.11713779725363 -124.93988253240983 676
-310.32567612859583 -124.93988253240983 676
-309.53421445993797 -124.93988253240983 676
-308.74275279128017 -124.93988253240983 676
-314.3289805837417 -127.5273948925485 690
-313.5211276970939 -127.5273948925485 690
-312.71327481044614 -127.5273948925485 690
-311.9054219237984 -127.5273948925485 690
-312.82810623444675 -106.8857034679306 582
-306.7833545277027 -105.04917935336135 572
-286.31259801238855 -98.2540401294551 535
-285.68621932491527 -98.2540401294551 535
-280.2644414491486 -96.60116842634277 526
-275.3953893272594 -95.13194913468736 518
-279.03275849733194 -96.60116842634277 526
-274.18243919600275 -95.13194913468736 518
-273.5759641303744 -95.13194913468736 518
-272.9694890647461 -95.13194913468736 518
-272.36301399911775 -95.13194913468736 518
-271.7565389334894 -95.13194913468736 518
-275.3377096418821 -96.60116842634277 526
-274.7218681659738 -96.60116842634277 526
-274.1060266900655 -96.60116842634277 526
-278.16967507523594 -98.2540401294551 535
-281.69347652066375 -99.72325942111051 543
-281.05773142291054 -99.72325942111051 543
-280.42198632515726 -99.72325942111051 543
-279.786241227404 -99.72325942111051 543
-279.1504961296508 -99.72325942111051 543
-269.79513635870734 -96.60116842634277 526
-269.179294882799 -96.60116842634277 526
-268.5634534068907 -96.60116842634277 526
-267.9476119309824 -96.60116842634277 526
-267.3317704550741 -96.60116842634277 526
-271.27950951302984 -98.2540401294551 535
-270.65313082555656 -98.2540401294551 535
-270.0267521380833 -98.2540401294551 535
-269.40037345061 -98.2540401294551 535
-268.7739947631367 -98.2540401294551 535
-268.14761607566345 -98.2540401294551 535
-271.5215549566117 -99.72325942111051 543
-270.88580985885847 -99.72325942111051 543
-270.2500647611052 -99.72325942111051 543
-269.6143196633519 -99.72325942111051 543
-268.9785745655987 -99.72325942111051 543
-268.34282946784543 -99.72325942111051 543
-272.1442183651766 -101.37613112422284 552
-271.49793605585836 -101.37613112422284 552
-275.7583866042673 -103.21265523879208 562
-275.1003962820991 -103.21265523879208 562
-274.4424059599309 -103.21265523879208 562
-273.7844156377627 -103.21265523879208 562
-268.26652450926724 -101.37613112422284 552
-272.46843499342634 -103.21265523879208 562
-266.97395989063074 -101.37613112422284 552
-266.3276775813125 -101.37613112422284 552
-314.28298447188496 -124.14903014488158 676
-313.4915228032271 -124.14903014488158 676
-312.7000611345693 -124.14903014488158 676
-311.9085994659115 -124.14903014488158 676
-311.11713779725363 -124.14903014488158 676
-309.53421445993797 -124.14903014488158 676
-315.1368334703895 -126.72016390527855 690
-314.3289805837417 -126.72016390527855 690
-313.5211276970939 -126.72016390527855 690
-312.71327481044614 -126.72016390527855 690
-307.4530528627209 -104.37999656391437 572
-306.7833545277027 -104.37999656391437 572
-286.31259801238855 -97.62814363932551 535
-285.68621932491527 -97.62814363932551 535
-285.059840637442 -97.62814363932551 535
-279.64859997324027 -95.98580103604712 526
-283.80708326249544 -97.62814363932551 535
-274.18243919600275 -94.52594094424413 518
-273.5759641303744 -94.52594094424413 518
-272.9694890647461 -94.52594094424413 518
-272.36301399911775 -94.52594094424413 518
-271.7565389334894 -94.52594094424413 518
-275.3377096418821 -95.98580103604712 526
-274.7218681659738 -95.98580103604712 526
-278.7960537627092 -97.62814363932551 535
-282.329221618417 -99.08800373112851 543
-277.243260836391 -99.08800373112851 543
-276.60751573863774 -99.08800373112851 543
-275.9717706408845 -99.08800373112851 543
-275.33602554313126 -99.08800373112851 543
-274.700280445378 -99.08800373112851 543
-274.0645353476247 -99.08800373112851 543
-273.4287902498715 -99.08800373112851 543
-272.7930451521182 -99.08800373112851 543
-272.15730005436495 -99.08800373112851 543
-271.5215549566117 -99.08800373112851 543
-270.88580985885847 -99.08800373112851 543
-270.2500647611052 -99.08800373112851 543
-269.6143196633519 -99.08800373112851 543
-268.9785745655987 -99.08800373112851 543
-272.7905006744948 -100.73034633440687 552
-277.0743672486037 -102.55517144916062 562
-276.41637692643553 -102.55517144916062 562
-280.6651194619945 -104.37999656391437 572
-279.99542112697634 -104.37999656391437 572
-284.2090396239854 -106.20482167866811 582
-283.5276332761173 -106.20482167866811 582
-282.8462269282491 -106.20482167866811 582
-280.80200788464475 -106.20482167866811 582
-265.03511296267607 -100.73034633440687 552
-208.8288589943189 -79.5623750032634 436
-251.31989208145808 -95.98580103604712 526
-313.4915228032271 -123.35817775735335 676
-312.7000611345693 -123.35817775735335 676
-311.9085994659115 -123.35817775735335 676
-311.11713779725363 -123.35817775735335 676
-309.53421445993797 -123.35817775735335 676
-315.1368334703895 -125.9129329180086 690
-312.71327481044614 -125.9129329180086 690
-367.3109162719593 -122.5673253698251 676
-320.975617049045 -107.33706600434388 592
-358.6947623012851 -120.21026142040539 663
-357.91852104933224 -120.21026142040539 663
-318.89627396689076 -107.33706600434388 592
-307.4530528627209 -103.7108137744674 572
-306.7833545277027 -103.7108137744674 572
-290.59390788920933 -98.4527480411465 543
-289.95816279145606 -98.4527480411465 543
-285.059840637442 -97.00224714919591 535
-284.4334619499687 -97.00224714919591 535
-287.41518240044303 -98.4527480411465 543
-273.5759641303744 -93.9199327538009 518
-272.9694890647461 -93.9199327538009 518
-272.36301399911775 -93.9199327538009 518
-275.9535511177904 -95.37043364575148 526
-275.3377096418821 -95.37043364575148 526
-279.4224324501825 -97.00224714919591 535
-282.9649667161703 -98.4527480411465 543
-287.00871147949573 -100.08456154459093 552
-275.9717706408845 -98.4527480411465 543
-275.33602554313126 -98.4527480411465 543
-274.700280445378 -98.4527480411465 543
-274.0645353476247 -98.4527480411465 543
-273.4287902498715 -98.4527480411465 543
-272.7930451521182 -98.4527480411465 543
-272.15730005436495 -98.4527480411465 543
-271.5215549566117 -98.4527480411465 543
-270.88580985885847 -98.4527480411465 543
-270.2500647611052 -98.4527480411465 543
-274.08306529313126 -100.08456154459093 552
-273.43678298381303 -100.08456154459093 552
-277.7323575707719 -101.89768765952915 562
-282.0045161320308 -103.7108137744674 572
-281.33481779701265 -103.7108137744674 572
-265.03511296267607 -100.08456154459093 552
-184.8805953481814 -69.98666803661611 386
-208.3183896340603 -79.05229861130731 436
-200.18194154815762 -76.15129682740613 420
-313.4915228032271 -122.5673253698251 676
-306.686598420443 -120.21026142040539 663
-311.9085994659115 -122.5673253698251 676
-321.66873140976315 -106.6444852152659 592
-320.975617049045 -106.6444852152659 592
-320.28250268832693 -106.6444852152659 592
-319.58938832760884 -106.6444852152659 592
-318.89627396689076 -106.6444852152659 592
-307.4530528627209 -103.04163098502043 572
-306.7833545277027 -103.04163098502043 572
-306.1136561926846 -103.04163098502043 572
-300.10402852449045 -101.24020386989768 562
-285.059840637442 -96.37635065906632 535
-298.78804788015407 -101.24020386989768 562
-277.185234069607 -94.75506625545584 526
-276.5693925936987 -94.75506625545584 526
-275.9535511177904 -94.75506625545584 526
-275.3377096418821 -94.75506625545584 526
-279.4224324501825 -96.37635065906632 535
-282.9649667161703 -97.8174923511645 543
-282.329221618417 -97.8174923511645 543
-286.28623175895837 -101.24020386989768 562
-280.5458883863135 -99.43877675477496 552
-279.89960607699527 -99.43877675477496 552
-279.25332376767705 -99.43877675477496 552
-278.6070414583588 -99.43877675477496 552
-277.9607591490406 -99.43877675477496 552
-277.3144768397224 -99.43877675477496 552
-276.66819453040415 -99.43877675477496 552
-276.0219122210859 -99.43877675477496 552
-275.3756299117677 -99.43877675477496 552
-274.7293476024495 -99.43877675477496 552
-279.0483382151083 -101.24020386989768 562
-278.3903478929401 -101.24020386989768 562
-282.67421446704896 -103.04163098502043 572
-282.0045161320308 -103.04163098502043 572
-281.33481779701265 -103.04163098502043 572
-280.6651194619945 -103.04163098502043 572
-180.56990789187668 -67.9138022401271 377
-180.1285158074329 -67.9138022401271 377
-179.6871237229891 -67.9138022401271 377
-179.24573163854532 -67.9138022401271 377
-308.2390809243487 -119.4346177326373 663
-307.46283967239583 -119.4346177326373 663
-306.686598420443 -119.4346177326373 663
-321.66873140976315 -105.95190442618791 592
-320.975617049045 -105.95190442618791 592
-320.28250268832693 -105.95190442618791 592
-314.19091893018305 -104.16217631088068 582
-308.12275119773903 -102.37244819557345 572
-307.4530528627209 -102.37244819557345 572
-306.7833545277027 -102.37244819557345 572
-306.1136561926846 -102.37244819557345 572
-300.10402852449045 -100.58272008026621 562
-294.1178168819962 -98.792991964959 552
-298.78804788015407 -100.58272008026621 562
-276.5693925936987 -94.1396988651602 526
-275.9535511177904 -94.1396988651602 526
-280.0488111376558 -95.75045416893671 535
-279.4224324501825 -95.75045416893671 535
-282.9649667161703 -97.1822366611825 543
-287.00871147949573 -98.792991964959 552
-291.55015433630393 -100.58272008026621 562
-286.9442220811266 -100.58272008026621 562
-286.28623175895837 -100.58272008026621 562
-285.6282414367902 -100.58272008026621 562
-284.970251114622 -100.58272008026621 562
-279.25332376767705 -98.792991964959 552
-278.6070414583588 -98.792991964959 552
-277.9607591490406 -98.792991964959 552
-277.3144768397224 -98.792991964959 552
-281.68029950378104 -100.58272008026621 562
-281.02230918161285 -100.58272008026621 562
-280.36431885944467 -100.58272008026621 562
-279.7063285372765 -100.58272008026621 562
-279.0483382151083 -100.58272008026621 562
-283.3439128020671 -102.37244819557345 572
-282.67421446704896 -102.37244819557345 572
-282.0045161320308 -102.37244819557345 572
-281.33481779701265 -102.37244819557345 572
-280.6651194619945 -102.37244819557345 572
-180.56990789187668 -67.4727499470825 377
-180.1285158074329 -67.4727499470825 377
-179.6871237229891 -67.4727499470825 377
-179.24573163854532 -67.4727499470825 377
-178.80433955410152 -67.4727499470825 377
-294.2310399548577 -111.85800720670177 625
-292.03578754548874 -111.85800720670177 625
-291.3040367423657 -111.85800720670177 625
-308.2390809243487 -118.65897404486923 663
-321.66873140976315 -105.25932363710993 592
-320.975617049045 -105.25932363710993 592
-314.87232527805116 -103.4812945216182 582
-314.19091893018305 -103.4812945216182 582
-308.12275119773903 -101.70326540612649 572
-307.4530528627209 -101.70326540612649 572
-306.7833545277027 -101.70326540612649 572
-300.76201884665863 -99.92523629063476 562
-300.10402852449045 -99.92523629063476 562
-299.44603820232226 -99.92523629063476 562
-298.78804788015407 -99.92523629063476 562
-280.67518982512905 -95.12455767880712 535
-280.0488111376558 -95.12455767880712 535
-288.3012760981322 -98.14720717514304 552
-287.65499378881395 -98.14720717514304 552
-292.2081446584721 -99.92523629063476 562
-291.55015433630393 -99.92523629063476 562
-290.89216401413574 -99.92523629063476 562
-290.23417369196756 -99.92523629063476 562
-289.57618336979937 -99.92523629063476 562
-288.9181930476312 -99.92523629063476 562
-288.260202725463 -99.92523629063476 562
-287.6022124032948 -99.92523629063476 562
-286.9442220811266 -99.92523629063476 562
-286.28623175895837 -99.92523629063476 562
-285.6282414367902 -99.92523629063476 562
-284.970251114622 -99.92523629063476 562
-284.3122607924538 -99.92523629063476 562
-283.6542704702856 -99.92523629063476 562
-282.9962801481174 -99.92523629063476 562
-282.33828982594923 -99.92523629063476 562
-281.68029950378104 -99.92523629063476 562
-281.02230918161285 -99.92523629063476 562
-280.36431885944467 -99.92523629063476 562
-279.7063285372765 -99.92523629063476 562
-284.01361113708526 -101.70326540612649 572
-283.3439128020671 -101.70326540612649 572
-282.67421446704896 -101.70326540612649 572
-282.0045161320308 -101.70326540612649 572
-281.33481779701265 -101.70326540612649 572
-244.2722891906024 -90.67948489007782 510
-180.1285158074329 -67.03169765403791 377
-179.6871237229891 -67.03169765403791 377
-179.24573163854532 -67.03169765403791 377
-178.80433955410152 -67.03169765403791 377
-178.36294746965774 -67.03169765403791 377
-294.9627907579807 -111.12681971823261 625
-294.2310399548577 -111.12681971823261 625
-293.49928915173473 -111.12681971823261 625
-292.7675383486117 -111.12681971823261 625
-292.03578754548874 -111.12681971823261 625
-271.26231901449097 -103.4812945216182 582
-308.2390809243487 -117.88333035710114 663
-321.66873140976315 -104.56674284803195 592
-320.975617049045 -104.56674284803195 592
-320.28250268832693 -104.56674284803195 592
-319.58938832760884 -104.56674284803195 592
-308.12275119773903 -101.03408261667951 572
-307.4530528627209 -101.03408261667951 572
-301.4200091688268 -99.26775250100329 562
-300.76201884665863 -99.26775250100329 562
-300.10402852449045 -99.26775250100329 562
-299.44603820232226 -99.26775250100329 562
-298.78804788015407 -99.26775250100329 562
-298.1300575579859 -99.26775250100329 562
-297.4720672358177 -99.26775250100329 562
-294.1821156249767 -99.26775250100329 562
-288.3012760981322 -97.50142238532707 552
-287.65499378881395 -97.50142238532707 552
-287.00871147949573 -97.50142238532707 552
-286.3624291701775 -97.50142238532707 552
-290.89216401413574 -99.26775250100329 562
-290.23417369196756 -99.26775250100329 562
-289.57618336979937 -99.26775250100329 562
-288.9181930476312 -99.26775250100329 562
-288.260202725463 -99.26775250100329 562
-287.6022124032948 -99.26775250100329 562
-286.9442220811266 -99.26775250100329 562
-286.28623175895837 -99.26775250100329 562
-285.6282414367902 -99.26775250100329 562
-284.970251114622 -99.26775250100329 562
-284.3122607924538 -99.26775250100329 562
-283.6542704702856 -99.26775250100329 562
-282.9962801481174 -99.26775250100329 562
-282.33828982594923 -99.26775250100329 562
-281.68029950378104 -99.26775250100329 562
-281.02230918161285 -99.26775250100329 562
-280.36431885944467 -99.26775250100329 562
-284.6833094721034 -101.03408261667951 572
-284.01361113708526 -101.03408261667951 572
-283.3439128020671 -101.03408261667951 572
-282.67421446704896 -101.03408261667951 572
-282.0045161320308 -101.03408261667951 572
-281.33481779701265 -101.03408261667951 572
-280.6651194619945 -101.03408261667951 572
-243.67518053525404 -90.08283589948698 510
-179.6871237229891 -66.59064536099332 377
-179.24573163854532 -66.59064536099332 377
-178.80433955410152 -66.59064536099332 377
-178.36294746965774 -66.59064536099332 377
-294.9627907579807 -110.39563222976345 625
-294.2310399548577 -110.39563222976345 625
-293.49928915173473 -110.39563222976345 625
-292.7675383486117 -110.39563222976345 625
-212.134796073043 -80.19138725170018 454
-211.60325228965445 -80.19138725170018 454
-308.2390809243487 -117.10768666933306 663
-320.975617049045 -103.87416205895396 592
-320.28250268832693 -103.87416205895396 592
-319.58938832760884 -103.87416205895396 592
-308.12275119773903 -100.36489982723253 572
-302.077999490995 -98.61026871137182 562
-301.4200091688268 -98.61026871137182 562
-300.76201884665863 -98.61026871137182 562
-300.10402852449045 -98.61026871137182 562
-299.44603820232226 -98.61026871137182 562
-298.78804788015407 -98.61026871137182 562
-298.1300575579859 -98.61026871137182 562
-297.4720672358177 -98.61026871137182 562
-296.8140769136495 -98.61026871137182 562
-296.15608659148126 -98.61026871137182 562
-294.1821156249767 -98.61026871137182 562
-293.5241253028085 -98.61026871137182 562
-292.8661349806403 -98.61026871137182 562
-287.00871147949573 -96.85563759551113 552
-286.3624291701775 -96.85563759551113 552
-290.89216401413574 -98.61026871137182 562
-290.23417369196756 -98.61026871137182 562
-289.57618336979937 -98.61026871137182 562
-288.9181930476312 -98.61026871137182 562
-288.260202725463 -98.61026871137182 562
-287.6022124032948 -98.61026871137182 562
-286.9442220811266 -98.61026871137182 562
-286.28623175895837 -98.61026871137182 562
-285.6282414367902 -98.61026871137182 562
-284.970251114622 -98.61026871137182 562
-284.3122607924538 -98.61026871137182 562
-283.6542704702856 -98.61026871137182 562
-282.9962801481174 -98.61026871137182 562
-282.33828982594923 -98.61026871137182 562
-281.68029950378104 -98.61026871137182 562
-286.0227061421398 -100.36489982723253 572
-285.3530078071216 -100.36489982723253 572
-284.6833094721034 -100.36489982723253 572
-284.01361113708526 -100.36489982723253 572
-283.3439128020671 -100.36489982723253 572
-282.67421446704896 -100.36489982723253 572
-282.0045161320308 -100.36489982723253 572
-281.33481779701265 -100.36489982723253 572
-280.6651194619945 -100.36489982723253 572
-243.67518053525404 -89.48618690889614 510
-181.5936184044001 -66.851445514293 381
-179.24573163854532 -66.14959306794871 377
-178.80433955410152 -66.14959306794871 377
-178.36294746965774 -66.14959306794871 377
-190.6639479459587 -70.88709708077263 404
-294.2310399548577 -109.66444474129429 625
-293.49928915173473 -109.66444474129429 625
-292.7675383486117 -109.66444474129429 625
-212.134796073043 -79.66025266007618 454
-211.60325228965445 -79.66025266007618 454
-308.2390809243487 -116.33204298156498 663
-320.28250268832693 -103.18158126987598 592
-319.58938832760884 -103.18158126987598 592
-308.12275119773903 -99.69571703778557 572
-302.077999490995 -97.95278492174036 562
-301.4200091688268 -97.95278492174036 562
-300.76201884665863 -97.95278492174036 562
-300.10402852449045 -97.95278492174036 562
-299.44603820232226 -97.95278492174036 562
-298.78804788015407 -97.95278492174036 562
-298.1300575579859 -97.95278492174036 562
-297.4720672358177 -97.95278492174036 562
-296.8140769136495 -97.95278492174036 562
-296.15608659148126 -97.95278492174036 562
-294.1821156249767 -97.95278492174036 562
-293.5241253028085 -97.95278492174036 562
-292.8661349806403 -97.95278492174036 562
-292.2081446584721 -97.95278492174036 562
-291.55015433630393 -97.95278492174036 562
-290.89216401413574 -97.95278492174036 562
-290.23417369196756 -97.95278492174036 562
-289.57618336979937 -97.95278492174036 562
-288.9181930476312 -97.95278492174036 562
-288.260202725463 -97.95278492174036 562
-287.6022124032948 -97.95278492174036 562
-286.9442220811266 -97.95278492174036 562
-286.28623175895837 -97.95278492174036 562
-285.6282414367902 -97.95278492174036 562
-284.970251114622 -97.95278492174036 562
-284.3122607924538 -97.95278492174036 562
-283.6542704702856 -97.95278492174036 562
-282.9962801481174 -97.95278492174036 562
-282.33828982594923 -97.95278492174036 562
-286.69240447715794 -99.69571703778557 572
-286.0227061421398 -99.69571703778557 572
-285.3530078071216 -99.69571703778557 572
-284.6833094721034 -99.69571703778557 572
-284.01361113708526 -99.69571703778557 572
-283.3439128020671 -99.69571703778557 572
-282.67421446704896 -99.69571703778557 572
-282.0045161320308 -99.69571703778557 572
-281.33481779701265 -99.69571703778557 572
-280.6651194619945 -99.69571703778557 572
-243.67518053525404 -88.88953791830532 510
-185.88323143757492 -67.97435252576288 390
-179.24573163854532 -65.70854077490412 377
-178.80433955410152 -65.70854077490412 377
-178.36294746965774 -65.70854077490412 377
-179.809317246065 -66.4057136213222 381
-294.2310399548577 -108.93325725282514 625
-293.49928915173473 -108.93325725282514 625
-292.7675383486117 -108.93325725282514 625
-292.03578754548874 -108.93325725282514 625
-291.3040367423657 -108.93325725282514 625
-319.58938832760884 -102.48900048079798 592
-302.7359898131632 -97.29530113210889 562
-302.077999490995 -97.29530113210889 562
-301.4200091688268 -97.29530113210889 562
-300.76201884665863 -97.29530113210889 562
-300.10402852449045 -97.29530113210889 562
-299.44603820232226 -97.29530113210889 562
-298.78804788015407 -97.29530113210889 562
-298.1300575579859 -97.29530113210889 562
-297.4720672358177 -97.29530113210889 562
-296.8140769136495 -97.29530113210889 562
-296.15608659148126 -97.29530113210889 562
-295.49809626931307 -97.29530113210889 562
-294.1821156249767 -97.29530113210889 562
-293.5241253028085 -97.29530113210889 562
-292.8661349806403 -97.29530113210889 562
-292.2081446584721 -97.29530113210889 562
-291.55015433630393 -97.29530113210889 562
-290.89216401413574 -97.29530113210889 562
-290.23417369196756 -97.29530113210889 562
-289.57618336979937 -97.29530113210889 562
-288.9181930476312 -97.29530113210889 562
-288.260202725463 -97.29530113210889 562
-287.6022124032948 -97.29530113210889 562
-286.9442220811266 -97.29530113210889 562
-286.28623175895837 -97.29530113210889 562
-285.6282414367902 -97.29530113210889 562
-284.970251114622 -97.29530113210889 562
-284.3122607924538 -97.29530113210889 562
-283.6542704702856 -97.29530113210889 562
-282.9962801481174 -97.29530113210889 562
-287.3621028121761 -99.02653424833859 572
-286.69240447715794 -99.02653424833859 572
-286.0227061421398 -99.02653424833859 572
-285.3530078071216 -99.02653424833859 572
-284.6833094721034 -99.02653424833859 572
-284.01361113708526 -99.02653424833859 572
-283.3439128020671 -99.02653424833859 572
-282.67421446704896 -99.02653424833859 572
-286.9346650154579 -100.75776736456828 582
-286.25325866758976 -100.75776736456828 582
-301.27339746444864 -106.2977133365033 614
-243.07807187990568 -88.29288892771449 510
-181.14754311481633 -65.95998172835141 381
-180.70146782523256 -65.95998172835141 381
-180.25539253564878 -65.95998172835141 381
-179.809317246065 -65.95998172835141 381
-294.2310399548577 -108.20206976435598 625
-293.49928915173473 -108.20206976435598 625
-292.7675383486117 -108.20206976435598 625
-292.03578754548874 -108.20206976435598 625
-291.3040367423657 -108.20206976435598 625
-319.58938832760884 -101.79641969172 592
-302.7359898131632 -96.63781734247742 562
-307.4530528627209 -98.35735145889163 572
-301.4200091688268 -96.63781734247742 562
-300.76201884665863 -96.63781734247742 562
-300.10402852449045 -96.63781734247742 562
-299.44603820232226 -96.63781734247742 562
-298.78804788015407 -96.63781734247742 562
-298.1300575579859 -96.63781734247742 562
-297.4720672358177 -96.63781734247742 562
-291.5326876447233 -94.91828322606324 552
-290.8864053354051 -94.91828322606324 552
-290.24012302608685 -94.91828322606324 552
-294.8401059471449 -96.63781734247742 562
-294.1821156249767 -96.63781734247742 562
-293.5241253028085 -96.63781734247742 562
-292.8661349806403 -96.63781734247742 562
-292.2081446584721 -96.63781734247742 562
-291.55015433630393 -96.63781734247742 562
-290.89216401413574 -96.63781734247742 562
-290.23417369196756 -96.63781734247742 562
-289.57618336979937 -96.63781734247742 562
-288.9181930476312 -96.63781734247742 562
-288.260202725463 -96.63781734247742 562
-287.6022124032948 -96.63781734247742 562
-286.9442220811266 -96.63781734247742 562
-286.28623175895837 -96.63781734247742 562
-285.6282414367902 -96.63781734247742 562
-284.970251114622 -96.63781734247742 562
-284.3122607924538 -96.63781734247742 562
-288.7014994822124 -98.35735145889163 572
-288.03180114719424 -98.35735145889163 572
-287.3621028121761 -98.35735145889163 572
-286.69240447715794 -98.35735145889163 572
-286.0227061421398 -98.35735145889163 572
-285.3530078071216 -98.35735145889163 572
-284.6833094721034 -98.35735145889163 572
-284.01361113708526 -98.35735145889163 572
-283.3439128020671 -98.35735145889163 572
-287.616071363326 -100.07688557530581 582
-286.9346650154579 -100.07688557530581 582
-180.70146782523256 -65.51424983538061 381
-180.25539253564878 -65.51424983538061 381
-294.9627907579807 -107.47088227588682 625
-294.2310399548577 -107.47088227588682 625
-293.49928915173473 -107.47088227588682 625
-292.03578754548874 -107.47088227588682 625
-291.3040367423657 -107.47088227588682 625
-319.58938832760884 -101.10383890264201 592
-302.7359898131632 -95.98033355284596 562
-318.2031596061727 -101.10383890264201 592
-301.4200091688268 -95.98033355284596 562
-300.76201884665863 -95.98033355284596 562
-300.10402852449045 -95.98033355284596 562
-299.44603820232226 -95.98033355284596 562
-298.78804788015407 -95.98033355284596 562
-292.82525226335974 -94.27249843624728 552
-297.4720672358177 -95.98033355284596 562
-291.5326876447233 -94.27249843624728 552
-290.8864053354051 -94.27249843624728 552
-290.24012302608685 -94.27249843624728 552
-294.8401059471449 -95.98033355284596 562
-294.1821156249767 -95.98033355284596 562
-293.5241253028085 -95.98033355284596 562
-292.8661349806403 -95.98033355284596 562
-292.2081446584721 -95.98033355284596 562
-291.55015433630393 -95.98033355284596 562
-290.89216401413574 -95.98033355284596 562
-290.23417369196756 -95.98033355284596 562
-289.57618336979937 -95.98033355284596 562
-288.9181930476312 -95.98033355284596 562
-288.260202725463 -95.98033355284596 562
-287.6022124032948 -95.98033355284596 562
-286.9442220811266 -95.98033355284596 562
-286.28623175895837 -95.98033355284596 562
-285.6282414367902 -95.98033355284596 562
-284.970251114622 -95.98033355284596 562
-284.3122607924538 -95.98033355284596 562
-288.7014994822124 -97.68816866944465 572
-288.03180114719424 -97.68816866944465 572
-287.3621028121761 -97.68816866944465 572
-286.69240447715794 -97.68816866944465 572
-286.0227061421398 -97.68816866944465 572
-285.3530078071216 -97.68816866944465 572
-284.6833094721034 -97.68816866944465 572
-284.01361113708526 -97.68816866944465 572
-288.2974777111942 -99.39600378604332 582
-287.616071363326 -99.39600378604332 582
-293.49928915173473 -106.73969478741766 625
-319.58938832760884 -100.41125811356403 592
