-249.16153091741953 -149.56805184563498 488
-244.51493103967977 -147.11611656947704 480
-243.9529464228813 -147.11611656947704 480
-243.39096180608286 -147.11611656947704 480
-239.79361497441835 -145.27716511235857 474
-239.23865516532985 -145.27716511235857 474
-238.68369535624137 -145.27716511235857 474
-234.6120664567941 -143.13172174572037 467
-234.06530225670062 -143.13172174572037 467
-233.51853805660713 -143.13172174572037 467
-232.97177385651364 -143.13172174572037 467
-228.94112300204122 -140.98627837908217 460
-228.4025544109427 -140.98627837908217 460
-227.86398581984417 -140.98627837908217 460
-227.32541722874566 -140.98627837908217 460
-226.78684863764715 -140.98627837908217 460
-226.24828004654862 -140.98627837908217 460
-225.7097114554501 -140.98627837908217 460
-225.17114286435157 -140.98627837908217 460
-224.63257427325306 -140.98627837908217 460
-221.17104039064816 -139.1473269219637 454
-220.63949660725962 -139.1473269219637 454
-220.1079528238711 -139.1473269219637 454
-216.67451817210616 -137.30837546484523 448
-219.04486525709402 -139.1473269219637 454
-218.51332147370547 -139.1473269219637 454
-217.98177769031693 -139.1473269219637 454
-217.4502339069284 -139.1473269219637 454
-216.91869012353985 -139.1473269219637 454
-216.3871463401513 -139.1473269219637 454
-215.85560255676276 -139.1473269219637 454
-215.32405877337422 -139.1473269219637 454
-214.79251498998568 -139.1473269219637 454
-214.26097120659716 -139.1473269219637 454
-213.72942742320862 -139.1473269219637 454
-213.19788363982008 -139.1473269219637 454
-212.66633985643153 -139.1473269219637 454
-212.134796073043 -139.1473269219637 454
-220.92498146541016 -145.27716511235857 474
-223.15951560133843 -147.11611656947704 480
-226.3074898342823 -149.56805184563498 488
-225.73613880720387 -149.56805184563498 488
-228.39461055566002 -151.71349521227322 495
-227.8150639195866 -151.71349521227322 495
-227.2355172835132 -151.71349521227322 495
-242.2667652581031 -142.58537845433622 467
-238.09678905071607 -140.44812438756887 460
-237.55822045961756 -140.44812438756887 460
-237.01965186851902 -140.44812438756887 460
-236.4810832774205 -140.44812438756887 460
-235.942514686322 -140.44812438756887 460
-235.40394609522346 -140.44812438756887 460
-238.4394158574486 -142.58537845433622 467
-244.51493103967977 -146.55456457833273 480
-243.9529464228813 -146.55456457833273 480
-240.34857478350682 -144.72263252110358 474
-236.2523590570746 -142.58537845433622 467
-235.70559485698112 -142.58537845433622 467
-235.15883065688763 -142.58537845433622 467
-234.6120664567941 -142.58537845433622 467
-234.06530225670062 -142.58537845433622 467
-230.01826018423827 -140.44812438756887 460
-229.47969159313973 -140.44812438756887 460
-228.94112300204122 -140.44812438756887 460
-228.4025544109427 -140.44812438756887 460
-227.86398581984417 -140.44812438756887 460
-227.32541722874566 -140.44812438756887 460
-226.78684863764715 -140.44812438756887 460
-226.24828004654862 -140.44812438756887 460
-225.7097114554501 -140.44812438756887 460
-225.17114286435157 -140.44812438756887 460
-224.63257427325306 -140.44812438756887 460
-224.09400568215455 -140.44812438756887 460
-220.63949660725962 -138.61619233033971 454
-217.1990371477847 -136.78426027311053 448
-216.67451817210616 -136.78426027311053 448
-219.04486525709402 -138.61619233033971 454
-218.51332147370547 -138.61619233033971 454
-217.98177769031693 -138.61619233033971 454
-217.4502339069284 -138.61619233033971 454
-216.91869012353985 -138.61619233033971 454
-219.24688836226787 -140.44812438756887 460
-228.21737715252453 -146.55456457833273 480
-227.65539253572607 -146.55456457833273 480
-227.09340791892762 -146.55456457833273 480
-223.69978051085255 -144.72263252110358 474
-213.72942742320862 -138.61619233033971 454
-213.19788363982008 -138.61619233033971 454
-215.4769082245782 -140.44812438756887 460
-221.47994127449863 -144.72263252110358 474
-223.7215002181369 -146.55456457833273 480
-223.15951560133843 -146.55456457833273 480
-226.3074898342823 -148.9971406546383 488
-228.9741571917334 -151.13439472140564 495
-228.39461055566002 -151.13439472140564 495
-227.8150639195866 -151.13439472140564 495
-227.2355172835132 -151.13439472140564 495
-239.71249482401163 -139.90997039605557 460
-236.0542663255273 -138.0850577387157 454
-232.41008744246292 -136.26014508137584 448
-231.88556846678438 -136.26014508137584 448
-231.3610494911058 -136.26014508137584 448
-230.83653051542726 -136.26014508137584 448
-230.31201153974868 -136.26014508137584 448
-229.78749256407013 -136.26014508137584 448
-229.2629735883916 -136.26014508137584 448
-228.738454612713 -136.26014508137584 448
-228.21393563703447 -136.26014508137584 448
-227.6894166613559 -136.26014508137584 448
-227.16489768567735 -136.26014508137584 448
-226.64037870999877 -136.26014508137584 448
-226.11585973432022 -136.26014508137584 448
-225.59134075864165 -136.26014508137584 448
-228.08110957469918 -138.0850577387157 454
-227.54956579131064 -138.0850577387157 454
-227.0180220079221 -138.0850577387157 454
-226.48647822453356 -138.0850577387157 454
-225.954934441145 -138.0850577387157 454
-225.4233906577565 -138.0850577387157 454
-224.89184687436796 -138.0850577387157 454
-224.36030309097941 -138.0850577387157 454
-223.82875930759087 -138.0850577387157 454
-223.29721552420233 -138.0850577387157 454
-222.7656717408138 -138.0850577387157 454
-222.23412795742524 -138.0850577387157 454
-221.7025841740367 -138.0850577387157 454
-221.17104039064816 -138.0850577387157 454
-220.63949660725962 -138.0850577387157 454
-220.1079528238711 -138.0850577387157 454
-222.478299908859 -139.90997039605557 460
-230.46531561971835 -145.99301258718842 480
-229.9033310029199 -145.99301258718842 480
-229.34134638612144 -145.99301258718842 480
-228.779361769323 -145.99301258718842 480
-228.21737715252453 -145.99301258718842 480
-227.65539253572607 -145.99301258718842 480
-227.09340791892762 -145.99301258718842 480
-226.53142330212916 -145.99301258718842 480
-225.96943868533072 -145.99301258718842 480
-225.40745406853225 -145.99301258718842 480
-224.8454694517338 -145.99301258718842 480
-224.28348483493534 -145.99301258718842 480
-223.7215002181369 -145.99301258718842 480
-223.15951560133843 -145.99301258718842 480
-226.3074898342823 -148.42622946364156 488
-228.9741571917334 -150.55529423053807 495
-228.39461055566002 -150.55529423053807 495
-227.8150639195866 -150.55529423053807 495
-227.2355172835132 -150.55529423053807 495
-197.79183504767803 -136.26014508137584 448
-243.06151444585646 -167.8919644752667 552
-290.5391344121502 -205.60682606029036 676
-240.25106341511017 -139.37181640454227 460
-236.58581010891584 -137.55392314709172 454
-236.0542663255273 -137.55392314709172 454
-232.41008744246292 -135.73602988964117 448
-231.88556846678438 -135.73602988964117 448
-231.3610494911058 -135.73602988964117 448
-230.83653051542726 -135.73602988964117 448
-230.31201153974868 -135.73602988964117 448
-229.78749256407013 -135.73602988964117 448
-226.1924873349756 -133.91813663219062 442
-225.67499316700702 -133.91813663219062 442
-225.15749899903844 -133.91813663219062 442
-224.6400048310699 -133.91813663219062 442
-224.1225106631013 -133.91813663219062 442
-223.60501649513273 -133.91813663219062 442
-223.08752232716415 -133.91813663219062 442
-222.57002815919557 -133.91813663219062 442
-225.0668217829631 -135.73602988964117 448
-224.54230280728453 -135.73602988964117 448
-224.01778383160598 -135.73602988964117 448
-223.49326485592744 -135.73602988964117 448
-219.98255731935268 -133.91813663219062 442
-219.4650631513841 -133.91813663219062 442
-218.94756898341552 -133.91813663219062 442
-218.43007481544694 -133.91813663219062 442
-217.91258064747836 -133.91813663219062 442
-217.39508647950979 -133.91813663219062 442
-216.8775923115412 -133.91813663219062 442
-222.23412795742524 -137.55392314709172 454
-221.7025841740367 -137.55392314709172 454
-224.09400568215455 -139.37181640454227 460
-223.555437091056 -139.37181640454227 460
-229.34134638612144 -145.4314605960441 480
-228.779361769323 -145.4314605960441 480
-228.21737715252453 -145.4314605960441 480
-227.65539253572607 -145.4314605960441 480
-227.09340791892762 -145.4314605960441 480
-226.53142330212916 -145.4314605960441 480
-225.96943868533072 -145.4314605960441 480
-225.40745406853225 -145.4314605960441 480
-224.8454694517338 -145.4314605960441 480
-224.28348483493534 -145.4314605960441 480
-223.7215002181369 -145.4314605960441 480
-226.87884086136074 -147.85531827264484 488
-226.3074898342823 -147.85531827264484 488
-228.9741571917334 -149.9761937396705 495
-228.39461055566002 -149.9761937396705 495
-227.8150639195866 -149.9761937396705 495
-227.2355172835132 -149.9761937396705 495
-241.00579026445553 -164.5193397992749 543
-198.31635402335658 -135.73602988964117 448
-197.79183504767803 -135.73602988964117 448
-197.26731607199946 -135.73602988964117 448
-285.7280846177155 -200.8772049482859 663
-284.95184336576267 -200.8772049482859 663
-284.1756021138098 -200.8772049482859 663
-283.39936086185696 -200.8772049482859 663
-282.62311960990405 -200.8772049482859 663
-244.4538220584771 -140.94634858018375 467
-237.11735389230435 -137.0227885554677 454
-236.58581010891584 -137.0227885554677 454
-232.9346064181415 -135.21191469790648 448
-232.41008744246292 -135.21191469790648 448
-231.88556846678438 -135.21191469790648 448
-231.3610494911058 -135.21191469790648 448
-230.83653051542726 -135.21191469790648 448
-230.31201153974868 -135.21191469790648 448
-226.70998150294417 -133.40104084034522 442
-226.1924873349756 -133.40104084034522 442
-225.67499316700702 -133.40104084034522 442
-225.15749899903844 -133.40104084034522 442
-224.6400048310699 -133.40104084034522 442
-224.1225106631013 -133.40104084034522 442
-223.60501649513273 -133.40104084034522 442
-223.08752232716415 -133.40104084034522 442
-222.57002815919557 -133.40104084034522 442
-222.052533991227 -133.40104084034522 442
-221.53503982325842 -133.40104084034522 442
-221.01754565528984 -133.40104084034522 442
-220.50005148732126 -133.40104084034522 442
-219.98255731935268 -133.40104084034522 442
-219.4650631513841 -133.40104084034522 442
-218.94756898341552 -133.40104084034522 442
-218.43007481544694 -133.40104084034522 442
-217.91258064747836 -133.40104084034522 442
-217.39508647950979 -133.40104084034522 442
-216.8775923115412 -133.40104084034522 442
-216.36009814357263 -133.40104084034522 442
-221.7025841740367 -137.0227885554677 454
-221.17104039064816 -137.0227885554677 454
-298.3979095084965 -185.31275809043433 614
-297.6790375195085 -185.31275809043433 614
-236.50826346068771 -149.39709324880292 495
-232.59235113214504 -147.2844070816481 488
-228.21737715252453 -144.8699086048998 480
-227.65539253572607 -144.8699086048998 480
-227.09340791892762 -144.8699086048998 480
-226.53142330212916 -144.8699086048998 480
-225.96943868533072 -144.8699086048998 480
-225.40745406853225 -144.8699086048998 480
-224.8454694517338 -144.8699086048998 480
-224.28348483493534 -144.8699086048998 480
-227.45019188843915 -147.2844070816481 488
-226.87884086136074 -147.2844070816481 488
-226.3074898342823 -147.2844070816481 488
-228.9741571917334 -149.39709324880292 495
-228.39461055566002 -149.39709324880292 495
-227.8150639195866 -149.39709324880292 495
-227.2355172835132 -149.39709324880292 495
-241.00579026445553 -163.88408410929287 543
-198.31635402335658 -135.21191469790648 448
-197.79183504767803 -135.21191469790648 448
-197.26731607199946 -135.21191469790648 448
-279.7436646213313 -192.25444121108578 637
-292.91351941812366 -204.02512128523387 676
-292.1220577494658 -204.02512128523387 676
-285.7280846177155 -200.10156126051783 663
-284.95184336576267 -200.10156126051783 663
-284.1756021138098 -200.10156126051783 663
-288.9562110748345 -204.02512128523387 676
-288.16474940617667 -204.02512128523387 676
-245.0005862585706 -140.4000052887996 467
-240.78963200620868 -138.29550842151568 460
-237.11735389230435 -136.49165396384373 454
-236.58581010891584 -136.49165396384373 454
-232.9346064181415 -134.68779950617179 448
-232.41008744246292 -134.68779950617179 448
-231.88556846678438 -134.68779950617179 448
-231.3610494911058 -134.68779950617179 448
-227.74496983888133 -132.88394504849984 442
-227.22747567091275 -132.88394504849984 442
-226.70998150294417 -132.88394504849984 442
-226.1924873349756 -132.88394504849984 442
-225.67499316700702 -132.88394504849984 442
-225.15749899903844 -132.88394504849984 442
-224.6400048310699 -132.88394504849984 442
-224.1225106631013 -132.88394504849984 442
-223.60501649513273 -132.88394504849984 442
-223.08752232716415 -132.88394504849984 442
-222.57002815919557 -132.88394504849984 442
-222.052533991227 -132.88394504849984 442
-221.53503982325842 -132.88394504849984 442
-221.01754565528984 -132.88394504849984 442
-220.50005148732126 -132.88394504849984 442
-219.98255731935268 -132.88394504849984 442
-219.4650631513841 -132.88394504849984 442
-218.94756898341552 -132.88394504849984 442
-218.43007481544694 -132.88394504849984 442
-217.91258064747836 -132.88394504849984 442
-217.39508647950979 -132.88394504849984 442
-216.8775923115412 -132.88394504849984 442
-216.36009814357263 -132.88394504849984 442
-233.16370215922348 -146.71349589065142 488
-232.59235113214504 -146.71349589065142 488
-228.21737715252453 -144.30835661375548 480
-227.65539253572607 -144.30835661375548 480
-227.09340791892762 -144.30835661375548 480
-226.53142330212916 -144.30835661375548 480
-225.96943868533072 -144.30835661375548 480
-225.40745406853225 -144.30835661375548 480
-228.59289394259602 -146.71349589065142 488
-228.02154291551759 -146.71349589065142 488
-227.45019188843915 -146.71349589065142 488
-226.87884086136074 -146.71349589065142 488
-229.55370382780683 -148.81799275793534 495
-228.9741571917334 -148.81799275793534 495
-228.39461055566002 -148.81799275793534 495
-227.8150639195866 -148.81799275793534 495
-230.44894884105784 -150.92248962521927 502
-214.26546375634845 -142.50450215608353 474
-213.71050394725998 -142.50450215608353 474
-213.1555441381715 -142.50450215608353 474
-249.43877371753962 -168.9610342019387 562
-248.78078339537143 -168.9610342019387 562
-248.1227930732032 -168.9610342019387 562
-247.46480275103502 -168.9610342019387 562
-288.05680837357414 -199.32591757274974 663
-287.2805671216213 -199.32591757274974 663
-286.50432586966843 -199.32591757274974 663
-285.7280846177155 -199.32591757274974 663
-284.95184336576267 -199.32591757274974 663
-284.1756021138098 -199.32591757274974 663
-288.9562110748345 -203.23426889770562 676
-288.16474940617667 -203.23426889770562 676
-249.2279317289224 -141.94996956482854 474
-245.0005862585706 -139.85366199741546 467
-244.4538220584771 -139.85366199741546 467
-237.11735389230435 -135.96051937221972 454
-236.58581010891584 -135.96051937221972 454
-236.0542663255273 -135.96051937221972 454
-232.41008744246292 -134.1636843144371 448
-231.88556846678438 -134.1636843144371 448
-231.3610494911058 -134.1636843144371 448
-230.83653051542726 -134.1636843144371 448
-230.31201153974868 -134.1636843144371 448
-226.70998150294417 -132.36684925665446 442
-226.1924873349756 -132.36684925665446 442
-225.67499316700702 -132.36684925665446 442
-225.15749899903844 -132.36684925665446 442
-224.6400048310699 -132.36684925665446 442
-224.1225106631013 -132.36684925665446 442
-223.60501649513273 -132.36684925665446 442
-223.08752232716415 -132.36684925665446 442
-222.57002815919557 -132.36684925665446 442
-222.052533991227 -132.36684925665446 442
-221.53503982325842 -132.36684925665446 442
-221.01754565528984 -132.36684925665446 442
-220.50005148732126 -132.36684925665446 442
-219.98255731935268 -132.36684925665446 442
-219.4650631513841 -132.36684925665446 442
-218.94756898341552 -132.36684925665446 442
-218.43007481544694 -132.36684925665446 442
-217.91258064747836 -132.36684925665446 442
-217.39508647950979 -132.36684925665446 442
-216.8775923115412 -132.36684925665446 442
-216.36009814357263 -132.36684925665446 442
-236.50826346068771 -148.23889226706777 495
-232.59235113214504 -146.1425846996547 488
-232.0210001050666 -146.1425846996547 488
-231.44964907798817 -146.1425846996547 488
-230.87829805090973 -146.1425846996547 488
-230.30694702383133 -146.1425846996547 488
-229.7355959967529 -146.1425846996547 488
-229.16424496967446 -146.1425846996547 488
-228.59289394259602 -146.1425846996547 488
-228.02154291551759 -146.1425846996547 488
-227.45019188843915 -146.1425846996547 488
-230.13325046388024 -148.23889226706777 495
-229.55370382780683 -148.23889226706777 495
-228.9741571917334 -148.23889226706777 495
-228.39461055566002 -148.23889226706777 495
-231.03669108612624 -150.33519983448085 502
-230.44894884105784 -150.33519983448085 502
-214.82042356543693 -141.94996956482854 474
-214.26546375634845 -141.94996956482854 474
-213.71050394725998 -141.94996956482854 474
-213.1555441381715 -141.94996956482854 474
-212.60058432908303 -141.94996956482854 474
-257.63419205712836 -174.29300060491605 582
-281.2352654584172 -190.76398863459025 637
-256.2713793613921 -174.29300060491605 582
-279.7436646213313 -190.76398863459025 637
-290.38553212943276 -198.55027388498166 663
-294.4964427554393 -202.4434165101774 676
-293.70498108678146 -202.4434165101774 676
-287.2805671216213 -198.55027388498166 663
-286.50432586966843 -198.55027388498166 663
-285.7280846177155 -198.55027388498166 663
-284.95184336576267 -198.55027388498166 663
-289.74767274349233 -202.4434165101774 676
-288.9562110748345 -202.4434165101774 676
-249.7828915380109 -141.3954369735735 474
-245.54735045866408 -139.30731870603128 467
-245.0005862585706 -139.30731870603128 467
-244.4538220584771 -139.30731870603128 467
-240.25106341511017 -137.21920043848905 460
-236.58581010891584 -135.42938478059574 454
-236.0542663255273 -135.42938478059574 454
-235.52272254213875 -135.42938478059574 454
-234.9911787587502 -135.42938478059574 454
-226.1924873349756 -131.84975346480906 442
-225.67499316700702 -131.84975346480906 442
-225.15749899903844 -131.84975346480906 442
-224.6400048310699 -131.84975346480906 442
-224.1225106631013 -131.84975346480906 442
-223.60501649513273 -131.84975346480906 442
-223.08752232716415 -131.84975346480906 442
-222.57002815919557 -131.84975346480906 442
-222.052533991227 -131.84975346480906 442
-221.53503982325842 -131.84975346480906 442
-221.01754565528984 -131.84975346480906 442
-220.50005148732126 -131.84975346480906 442
-219.98255731935268 -131.84975346480906 442
-219.4650631513841 -131.84975346480906 442
-218.94756898341552 -131.84975346480906 442
-218.43007481544694 -131.84975346480906 442
-217.91258064747836 -131.84975346480906 442
-217.39508647950979 -131.84975346480906 442
-216.8775923115412 -131.84975346480906 442
-233.16370215922348 -145.57167350865797 488
-232.59235113214504 -145.57167350865797 488
-232.0210001050666 -145.57167350865797 488
-231.44964907798817 -145.57167350865797 488
-230.87829805090973 -145.57167350865797 488
-230.30694702383133 -145.57167350865797 488
-229.7355959967529 -145.57167350865797 488
-229.16424496967446 -145.57167350865797 488
-228.59289394259602 -145.57167350865797 488
-228.02154291551759 -145.57167350865797 488
-230.71279709995363 -147.6597917762002 495
-230.13325046388024 -147.6597917762002 495
-229.55370382780683 -147.6597917762002 495
-228.9741571917334 -147.6597917762002 495
-228.39461055566002 -147.6597917762002 495
-231.03669108612624 -149.74791004374242 502
-212.1947342529607 -139.30731870603128 467
-214.82042356543693 -141.3954369735735 474
-211.10120585277372 -139.30731870603128 467
-210.5544416526802 -139.30731870603128 467
-210.0076774525867 -139.30731870603128 467
-212.60058432908303 -141.3954369735735 474
-242.9130255577153 -161.97831703934688 543
-292.1220577494658 -201.65256412264915 676
-291.330596080808 -201.65256412264915 676
-290.5391344121502 -201.65256412264915 676
-289.74767274349233 -201.65256412264915 676
-249.7828915380109 -140.8409043823185 474
-249.2279317289224 -140.8409043823185 474
-248.67297191983394 -140.8409043823185 474
-244.4538220584771 -138.76097541464713 467
-240.25106341511017 -136.68104644697576 460
-236.58581010891584 -134.89825018897173 454
-236.0542663255273 -134.89825018897173 454
-235.52272254213875 -134.89825018897173 454
-226.1924873349756 -131.33265767296368 442
-225.67499316700702 -131.33265767296368 442
-225.15749899903844 -131.33265767296368 442
-224.6400048310699 -131.33265767296368 442
-224.1225106631013 -131.33265767296368 442
-223.60501649513273 -131.33265767296368 442
-223.08752232716415 -131.33265767296368 442
-222.57002815919557 -131.33265767296368 442
-222.052533991227 -131.33265767296368 442
-221.53503982325842 -131.33265767296368 442
-221.01754565528984 -131.33265767296368 442
-220.50005148732126 -131.33265767296368 442
-219.98255731935268 -131.33265767296368 442
-219.4650631513841 -131.33265767296368 442
-218.94756898341552 -131.33265767296368 442
-218.43007481544694 -131.33265767296368 442
-217.91258064747836 -131.33265767296368 442
-217.39508647950979 -131.33265767296368 442
-216.8775923115412 -131.33265767296368 442
-237.08781009676113 -147.08069128533262 495
-233.16370215922348 -145.00076231766124 488
-232.59235113214504 -145.00076231766124 488
-232.0210001050666 -145.00076231766124 488
-231.44964907798817 -145.00076231766124 488
-230.87829805090973 -145.00076231766124 488
-230.30694702383133 -145.00076231766124 488
-229.7355959967529 -145.00076231766124 488
-229.16424496967446 -145.00076231766124 488
-228.59289394259602 -145.00076231766124 488
-231.29234373602705 -147.08069128533262 495
-230.71279709995363 -147.08069128533262 495
-230.13325046388024 -147.08069128533262 495
-229.55370382780683 -147.08069128533262 495
-232.212175576263 -149.160620253004 502
-231.6244333311946 -149.160620253004 502
-212.1947342529607 -138.76097541464713 467
-211.6479700528672 -138.76097541464713 467
-211.10120585277372 -138.76097541464713 467
-210.5544416526802 -138.76097541464713 467
-210.0076774525867 -138.76097541464713 467
-209.4609132524932 -138.76097541464713 467
-208.91414905239972 -138.76097541464713 467
-292.91351941812366 -200.8617117351209 676
-273.5759641303744 -153.30873541723815 518
-249.7828915380109 -140.28637179106352 474
-249.2279317289224 -140.28637179106352 474
-248.67297191983394 -140.28637179106352 474
-244.4538220584771 -138.214632123263 467
-240.25106341511017 -136.14289245546246 460
-236.58581010891584 -134.36711559734775 454
-236.0542663255273 -134.36711559734775 454
-235.52272254213875 -134.36711559734775 454
-234.9911787587502 -134.36711559734775 454
-234.45963497536167 -134.36711559734775 454
-233.92809119197312 -134.36711559734775 454
-232.86500362519604 -134.36711559734775 454
-226.1924873349756 -130.8155618811183 442
-225.67499316700702 -130.8155618811183 442
-225.15749899903844 -130.8155618811183 442
-224.6400048310699 -130.8155618811183 442
-224.1225106631013 -130.8155618811183 442
-223.60501649513273 -130.8155618811183 442
-223.08752232716415 -130.8155618811183 442
-222.57002815919557 -130.8155618811183 442
-222.052533991227 -130.8155618811183 442
-221.53503982325842 -130.8155618811183 442
-221.01754565528984 -130.8155618811183 442
-220.50005148732126 -130.8155618811183 442
-219.98255731935268 -130.8155618811183 442
-219.4650631513841 -130.8155618811183 442
-218.94756898341552 -130.8155618811183 442
-218.43007481544694 -130.8155618811183 442
-217.91258064747836 -130.8155618811183 442
-217.39508647950979 -130.8155618811183 442
-216.8775923115412 -130.8155618811183 442
-233.7350531863019 -144.42985112666452 488
-233.16370215922348 -144.42985112666452 488
-232.59235113214504 -144.42985112666452 488
-232.0210001050666 -144.42985112666452 488
-231.44964907798817 -144.42985112666452 488
-230.87829805090973 -144.42985112666452 488
-230.30694702383133 -144.42985112666452 488
-229.7355959967529 -144.42985112666452 488
-229.16424496967446 -144.42985112666452 488
-231.87189037210047 -146.50159079446505 495
-231.29234373602705 -146.50159079446505 495
-230.71279709995363 -146.50159079446505 495
-233.38766006639977 -148.57333046226557 502
-232.79991782133138 -148.57333046226557 502
-235.91276801572536 -150.94103293975186 510
-196.3417255530329 -127.55997097457461 431
-195.83711019919926 -127.55997097457461 431
-211.6479700528672 -138.214632123263 467
-211.10120585277372 -138.214632123263 467
-210.5544416526802 -138.214632123263 467
-210.0076774525867 -138.214632123263 467
-209.4609132524932 -138.214632123263 467
-208.91414905239972 -138.214632123263 467
-250.754754361876 -166.33109904341285 562
-277.80107554551535 -155.06107050442884 526
-249.7828915380109 -139.7318391998085 474
-249.2279317289224 -139.7318391998085 474
-248.67297191983394 -139.7318391998085 474
-244.4538220584771 -137.66828883187884 467
-237.11735389230435 -133.83598100572374 454
-236.58581010891584 -133.83598100572374 454
-236.0542663255273 -133.83598100572374 454
-235.52272254213875 -133.83598100572374 454
-234.9911787587502 -133.83598100572374 454
-234.45963497536167 -133.83598100572374 454
-233.92809119197312 -133.83598100572374 454
-232.86500362519604 -133.83598100572374 454
-226.1924873349756 -130.2984660892729 442
-225.67499316700702 -130.2984660892729 442
-225.15749899903844 -130.2984660892729 442
-224.6400048310699 -130.2984660892729 442
-224.1225106631013 -130.2984660892729 442
-223.60501649513273 -130.2984660892729 442
-223.08752232716415 -130.2984660892729 442
-222.57002815919557 -130.2984660892729 442
-222.052533991227 -130.2984660892729 442
-221.53503982325842 -130.2984660892729 442
-221.01754565528984 -130.2984660892729 442
-220.50005148732126 -130.2984660892729 442
-219.98255731935268 -130.2984660892729 442
-219.4650631513841 -130.2984660892729 442
-218.94756898341552 -130.2984660892729 442
-218.43007481544694 -130.2984660892729 442
-217.91258064747836 -130.2984660892729 442
-217.39508647950979 -130.2984660892729 442
-216.8775923115412 -130.2984660892729 442
-237.66735673283455 -145.92249030359747 495
-233.7350531863019 -143.85893993566782 488
-233.16370215922348 -143.85893993566782 488
-232.59235113214504 -143.85893993566782 488
-232.0210001050666 -143.85893993566782 488
-231.44964907798817 -143.85893993566782 488
-230.87829805090973 -143.85893993566782 488
-230.30694702383133 -143.85893993566782 488
-233.03098364424727 -145.92249030359747 495
-232.45143700817385 -145.92249030359747 495
-231.87189037210047 -145.92249030359747 495
-234.56314455653654 -147.98604067152715 502
-233.97540231146817 -147.98604067152715 502
-233.38766006639977 -147.98604067152715 502
-236.50987667107373 -150.34438394916106 510
-196.8463409068665 -127.05574408252629 431
-193.608430069696 -125.28698662430087 425
-193.11083952357237 -125.28698662430087 425
-211.6479700528672 -137.66828883187884 467
-211.10120585277372 -137.66828883187884 467
-210.5544416526802 -137.66828883187884 467
-210.0076774525867 -137.66828883187884 467
-212.60058432908303 -139.7318391998085 474
-212.04562451999456 -139.7318391998085 474
-273.5759641303744 -152.0967190363517 518
-246.09411465875758 -137.12194554049466 467
-245.54735045866408 -137.12194554049466 467
-245.0005862585706 -137.12194554049466 467
-244.4538220584771 -137.12194554049466 467
-237.11735389230435 -133.30484641409976 454
-236.58581010891584 -133.30484641409976 454
-236.0542663255273 -133.30484641409976 454
-235.52272254213875 -133.30484641409976 454
-234.9911787587502 -133.30484641409976 454
-234.45963497536167 -133.30484641409976 454
-233.92809119197312 -133.30484641409976 454
-233.39654740858458 -133.30484641409976 454
-229.78749256407013 -131.54310835576362 448
-226.1924873349756 -129.78137029742751 442
-225.67499316700702 -129.78137029742751 442
-225.15749899903844 -129.78137029742751 442
-224.6400048310699 -129.78137029742751 442
-224.1225106631013 -129.78137029742751 442
-223.60501649513273 -129.78137029742751 442
-223.08752232716415 -129.78137029742751 442
-222.57002815919557 -129.78137029742751 442
-222.052533991227 -129.78137029742751 442
-221.53503982325842 -129.78137029742751 442
-221.01754565528984 -129.78137029742751 442
-220.50005148732126 -129.78137029742751 442
-219.98255731935268 -129.78137029742751 442
-219.4650631513841 -129.78137029742751 442
-218.94756898341552 -129.78137029742751 442
-218.43007481544694 -129.78137029742751 442
-217.91258064747836 -129.78137029742751 442
-217.39508647950979 -129.78137029742751 442
-216.8775923115412 -129.78137029742751 442
-238.24690336890794 -145.3433898127299 495
-234.30640421338032 -143.2880287446711 488
-233.7350531863019 -143.2880287446711 488
-233.16370215922348 -143.2880287446711 488
-232.59235113214504 -143.2880287446711 488
-232.0210001050666 -143.2880287446711 488
-231.44964907798817 -143.2880287446711 488
-230.87829805090973 -143.2880287446711 488
-233.6105302803207 -145.3433898127299 495
-233.03098364424727 -145.3433898127299 495
-235.7386290466733 -147.39875088078873 502
-235.15088680160494 -147.39875088078873 502
-234.56314455653654 -147.39875088078873 502
-237.70409398177043 -149.74773495857022 510
-237.1069853264221 -149.74773495857022 510
-236.50987667107373 -149.74773495857022 510
-196.3417255530329 -126.55151719047795 431
-195.83711019919926 -126.55151719047795 431
-211.6479700528672 -137.12194554049466 467
-214.26546375634845 -139.1773066085535 474
-210.5544416526802 -137.12194554049466 467
-210.0076774525867 -137.12194554049466 467
-212.60058432908303 -139.1773066085535 474
-212.04562451999456 -139.1773066085535 474
-246.29292599244758 -162.07990136692305 552
-278.41691702142367 -153.83033572383755 526
-273.5759641303744 -151.49071084590844 518
-246.09411465875758 -136.57560224911052 467
-245.54735045866408 -136.57560224911052 467
-245.0005862585706 -136.57560224911052 467
-237.6488976756929 -132.77371182247575 454
-237.11735389230435 -132.77371182247575 454
-236.58581010891584 -132.77371182247575 454
-236.0542663255273 -132.77371182247575 454
-235.52272254213875 -132.77371182247575 454
-234.9911787587502 -132.77371182247575 454
-234.45963497536167 -132.77371182247575 454
-230.83653051542726 -131.01899316402893 448
-230.31201153974868 -131.01899316402893 448
-226.70998150294417 -129.26427450558214 442
-226.1924873349756 -129.26427450558214 442
-225.67499316700702 -129.26427450558214 442
-225.15749899903844 -129.26427450558214 442
-224.6400048310699 -129.26427450558214 442
-224.1225106631013 -129.26427450558214 442
-223.60501649513273 -129.26427450558214 442
-223.08752232716415 -129.26427450558214 442
-222.57002815919557 -129.26427450558214 442
-222.052533991227 -129.26427450558214 442
-221.53503982325842 -129.26427450558214 442
-221.01754565528984 -129.26427450558214 442
-220.50005148732126 -129.26427450558214 442
-219.98255731935268 -129.26427450558214 442
-219.4650631513841 -129.26427450558214 442
-218.94756898341552 -129.26427450558214 442
-218.43007481544694 -129.26427450558214 442
-217.91258064747836 -129.26427450558214 442
-217.39508647950979 -129.26427450558214 442
-219.8216320261775 -131.01899316402893 448
-238.24690336890794 -144.76428932186232 495
-234.30640421338032 -142.71711755367437 488
-233.7350531863019 -142.71711755367437 488
-233.16370215922348 -142.71711755367437 488
-232.59235113214504 -142.71711755367437 488
-232.0210001050666 -142.71711755367437 488
-234.7696235524675 -144.76428932186232 495
-234.1900769163941 -144.76428932186232 495
-233.6105302803207 -144.76428932186232 495
-236.3263712917417 -146.8114610900503 502
-235.7386290466733 -146.8114610900503 502
-235.15088680160494 -146.8114610900503 502
-238.3012026371188 -149.15108596797938 510
-237.70409398177043 -149.15108596797938 510
-237.1069853264221 -149.15108596797938 510
-295.40547341073324 -186.29263090510364 637
-212.1947342529607 -136.57560224911052 467
-214.82042356543693 -138.62277401729847 474
-214.26546375634845 -138.62277401729847 474
-213.71050394725998 -138.62277401729847 474
-213.1555441381715 -138.62277401729847 474
-212.60058432908303 -138.62277401729847 474
-212.04562451999456 -138.62277401729847 474
-211.4906647109061 -138.62277401729847 474
-274.18243919600275 -150.88470265546522 518
-246.64087885885107 -136.02925895772637 467
-246.09411465875758 -136.02925895772637 467
-245.54735045866408 -136.02925895772637 467
-245.0005862585706 -136.02925895772637 467
-240.78963200620868 -133.99027648940927 460
-237.11735389230435 -132.24257723085177 454
-236.58581010891584 -132.24257723085177 454
-236.0542663255273 -132.24257723085177 454
-235.52272254213875 -132.24257723085177 454
-234.9911787587502 -132.24257723085177 454
-234.45963497536167 -132.24257723085177 454
-230.83653051542726 -130.49487797229423 448
-230.31201153974868 -130.49487797229423 448
-226.70998150294417 -128.74717871373673 442
-226.1924873349756 -128.74717871373673 442
-225.67499316700702 -128.74717871373673 442
-225.15749899903844 -128.74717871373673 442
-224.6400048310699 -128.74717871373673 442
-224.1225106631013 -128.74717871373673 442
-223.60501649513273 -128.74717871373673 442
-223.08752232716415 -128.74717871373673 442
-222.57002815919557 -128.74717871373673 442
-222.052533991227 -128.74717871373673 442
-221.53503982325842 -128.74717871373673 442
-221.01754565528984 -128.74717871373673 442
-220.50005148732126 -128.74717871373673 442
-219.98255731935268 -128.74717871373673 442
-219.4650631513841 -128.74717871373673 442
-218.94756898341552 -128.74717871373673 442
-218.43007481544694 -128.74717871373673 442
-217.91258064747836 -128.74717871373673 442
-217.39508647950979 -128.74717871373673 442
-331.69514118235713 -196.9074497974797 676
-238.24690336890794 -144.18518883099475 495
-237.66735673283455 -144.18518883099475 495
-237.08781009676113 -144.18518883099475 495
-236.50826346068771 -144.18518883099475 495
-235.92871682461433 -144.18518883099475 495
-235.3491701885409 -144.18518883099475 495
-234.7696235524675 -144.18518883099475 495
-237.50185578187848 -146.22417129931188 502
-236.91411353681008 -146.22417129931188 502
-236.3263712917417 -146.22417129931188 502
-235.7386290466733 -146.22417129931188 502
-238.89831129246716 -148.55443697738855 510
-238.3012026371188 -148.55443697738855 510
-237.70409398177043 -148.55443697738855 510
-237.1069853264221 -148.55443697738855 510
-295.40547341073324 -185.54740461685589 637
-228.0979798607843 -146.22417129931188 502
-227.5102376157159 -146.22417129931188 502
-214.26546375634845 -138.06824142604347 474
-213.71050394725998 -138.06824142604347 474
-213.1555441381715 -138.06824142604347 474
-212.60058432908303 -138.06824142604347 474
-212.04562451999456 -138.06824142604347 474
-211.4906647109061 -138.06824142604347 474
-274.18243919600275 -150.27869446502197 518
-246.64087885885107 -135.48291566634222 467
-246.09411465875758 -135.48291566634222 467
-245.54735045866408 -135.48291566634222 467
-245.0005862585706 -135.48291566634222 467
-240.78963200620868 -133.45212249789597 460
-237.11735389230435 -131.71144263922776 454
-236.58581010891584 -131.71144263922776 454
-236.0542663255273 -131.71144263922776 454
-235.52272254213875 -131.71144263922776 454
-234.9911787587502 -131.71144263922776 454
-234.45963497536167 -131.71144263922776 454
-233.92809119197312 -131.71144263922776 454
-230.31201153974868 -129.97076278055954 448
-226.70998150294417 -128.23008292189135 442
-226.1924873349756 -128.23008292189135 442
-225.67499316700702 -128.23008292189135 442
-225.15749899903844 -128.23008292189135 442
-224.6400048310699 -128.23008292189135 442
-224.1225106631013 -128.23008292189135 442
-223.60501649513273 -128.23008292189135 442
-223.08752232716415 -128.23008292189135 442
-222.57002815919557 -128.23008292189135 442
-222.052533991227 -128.23008292189135 442
-221.53503982325842 -128.23008292189135 442
-221.01754565528984 -128.23008292189135 442
-220.50005148732126 -128.23008292189135 442
-219.98255731935268 -128.23008292189135 442
-219.4650631513841 -128.23008292189135 442
-218.94756898341552 -128.23008292189135 442
-218.43007481544694 -128.23008292189135 442
-217.91258064747836 -128.23008292189135 442
-220.34615100185607 -129.97076278055954 448
-238.24690336890794 -143.6060883401272 495
-237.66735673283455 -143.6060883401272 495
-237.08781009676113 -143.6060883401272 495
-236.50826346068771 -143.6060883401272 495
-235.92871682461433 -143.6060883401272 495
-238.67734027201524 -145.63688150857342 502
-238.08959802694685 -145.63688150857342 502
-237.50185578187848 -145.63688150857342 502
-236.91411353681008 -145.63688150857342 502
-236.3263712917417 -145.63688150857342 502
-235.7386290466733 -145.63688150857342 502
-238.89831129246716 -147.9577879867977 510
-238.3012026371188 -147.9577879867977 510
-237.70409398177043 -147.9577879867977 510
-237.1069853264221 -147.9577879867977 510
-307.46283967239583 -192.345124382837 663
-226.92249537064754 -145.63688150857342 502
-213.71050394725998 -137.51370883478847 474
-213.1555441381715 -137.51370883478847 474
-212.60058432908303 -137.51370883478847 474
-212.04562451999456 -137.51370883478847 474
-211.4906647109061 -137.51370883478847 474
-247.1876430589446 -134.93657237495805 467
-246.64087885885107 -134.93657237495805 467
-246.09411465875758 -134.93657237495805 467
-245.54735045866408 -134.93657237495805 467
-245.0005862585706 -134.93657237495805 467
-244.4538220584771 -134.93657237495805 467
-240.25106341511017 -132.91396850638267 460
-236.58581010891584 -131.18030804760377 454
-236.0542663255273 -131.18030804760377 454
-235.52272254213875 -131.18030804760377 454
-234.9911787587502 -131.18030804760377 454
-234.45963497536167 -131.18030804760377 454
-237.01965186851902 -132.91396850638267 460
-236.4810832774205 -132.91396850638267 460
-232.86500362519604 -131.18030804760377 454
-232.3334598418075 -131.18030804760377 454
-231.80191605841895 -131.18030804760377 454
-228.21393563703447 -129.44664758882485 448
-224.6400048310699 -127.71298713004596 442
-224.1225106631013 -127.71298713004596 442
-223.60501649513273 -127.71298713004596 442
-223.08752232716415 -127.71298713004596 442
-222.57002815919557 -127.71298713004596 442
-222.052533991227 -127.71298713004596 442
-221.53503982325842 -127.71298713004596 442
-221.01754565528984 -127.71298713004596 442
-220.50005148732126 -127.71298713004596 442
-219.98255731935268 -127.71298713004596 442
-219.4650631513841 -127.71298713004596 442
-218.94756898341552 -127.71298713004596 442
-218.43007481544694 -127.71298713004596 442
-220.87066997753462 -129.44664758882485 448
-220.34615100185607 -129.44664758882485 448
-222.7656717408138 -131.18030804760377 454
-275.97723111686736 -165.27563040358888 572
-238.24690336890794 -143.02698784925963 495
-237.66735673283455 -143.02698784925963 495
-237.08781009676113 -143.02698784925963 495
-236.50826346068771 -143.02698784925963 495
-239.26508251708364 -145.049591717835 502
-238.67734027201524 -145.049591717835 502
-238.08959802694685 -145.049591717835 502
-237.50185578187848 -145.049591717835 502
-236.91411353681008 -145.049591717835 502
-236.3263712917417 -145.049591717835 502
-239.49541994781552 -147.36113899620688 510
-238.89831129246716 -147.36113899620688 510
-238.3012026371188 -147.36113899620688 510
-237.70409398177043 -147.36113899620688 510
-237.1069853264221 -147.36113899620688 510
-307.46283967239583 -191.56948069506893 663
-259.9044710764315 -165.27563040358888 572
-259.23477274141334 -165.27563040358888 572
-226.92249537064754 -145.049591717835 502
-213.71050394725998 -136.95917624353345 474
-213.1555441381715 -136.95917624353345 474
-212.60058432908303 -136.95917624353345 474
-212.04562451999456 -136.95917624353345 474
-220.86050428670572 -143.02698784925963 495
-223.3960419002372 -145.049591717835 502
-222.80829965516884 -145.049591717835 502
-274.7889142616311 -149.0666780841355 518
-247.1876430589446 -134.3902290835739 467
-246.64087885885107 -134.3902290835739 467
-246.09411465875758 -134.3902290835739 467
-245.54735045866408 -134.3902290835739 467
-245.0005862585706 -134.3902290835739 467
-244.4538220584771 -134.3902290835739 467
-240.25106341511017 -132.37581451486938 460
-239.71249482401163 -132.37581451486938 460
-236.0542663255273 -130.64917345597976 454
-235.52272254213875 -130.64917345597976 454
-234.9911787587502 -130.64917345597976 454
-237.55822045961756 -132.37581451486938 460
-237.01965186851902 -132.37581451486938 460
-240.0797084577291 -134.3902290835739 467
-239.53294425763562 -134.3902290835739 467
-238.9861800575421 -134.3902290835739 467
-234.86537750412495 -132.37581451486938 460
-231.27037227503044 -130.64917345597976 454
-227.6894166613559 -128.92253239709015 448
-224.1225106631013 -127.19589133820057 442
-223.60501649513273 -127.19589133820057 442
-223.08752232716415 -127.19589133820057 442
-222.57002815919557 -127.19589133820057 442
-222.052533991227 -127.19589133820057 442
-221.53503982325842 -127.19589133820057 442
-221.01754565528984 -127.19589133820057 442
-220.50005148732126 -127.19589133820057 442
-219.98255731935268 -127.19589133820057 442
-222.44422690457031 -128.92253239709015 448
-221.91970792889174 -128.92253239709015 448
-221.3951889532132 -128.92253239709015 448
-220.87066997753462 -128.92253239709015 448
-220.34615100185607 -128.92253239709015 448
-219.8216320261775 -128.92253239709015 448
-330.9036795136993 -194.534892634895 676
-238.82645000498135 -142.44788735839205 495
-238.24690336890794 -142.44788735839205 495
-237.66735673283455 -142.44788735839205 495
-237.08781009676113 -142.44788735839205 495
-239.852824762152 -144.46230192709658 502
-239.26508251708364 -144.46230192709658 502
-238.67734027201524 -144.46230192709658 502
-238.08959802694685 -144.46230192709658 502
-237.50185578187848 -144.46230192709658 502
-236.91411353681008 -144.46230192709658 502
-240.09252860316388 -146.76449000561604 510
-239.49541994781552 -146.76449000561604 510
-238.89831129246716 -146.76449000561604 510
-238.3012026371188 -146.76449000561604 510
-237.70409398177043 -146.76449000561604 510
-237.1069853264221 -146.76449000561604 510
-228.0979798607843 -144.46230192709658 502
-227.5102376157159 -144.46230192709658 502
-226.92249537064754 -144.46230192709658 502
-213.71050394725998 -136.40464365227845 474
-213.1555441381715 -136.40464365227845 474
-212.60058432908303 -136.40464365227845 474
-212.04562451999456 -136.40464365227845 474
-223.9837841453056 -144.46230192709658 502
-226.95613818549995 -146.76449000561604 510
-222.80829965516884 -144.46230192709658 502
-222.22055741010044 -144.46230192709658 502
-221.63281516503207 -144.46230192709658 502
-275.3953893272594 -148.46066989369226 518
-270.5450700259302 -146.1678410150252 510
-247.1876430589446 -133.84388579218975 467
-246.64087885885107 -133.84388579218975 467
-246.09411465875758 -133.84388579218975 467
-245.54735045866408 -133.84388579218975 467
-245.0005862585706 -133.84388579218975 467
-244.4538220584771 -133.84388579218975 467
-243.90705785838358 -133.84388579218975 467
-239.71249482401163 -131.83766052335608 460
-239.17392623291312 -131.83766052335608 460
-238.6353576418146 -131.83766052335608 460
-238.09678905071607 -131.83766052335608 460
-237.55822045961756 -131.83766052335608 460
-240.6264726578226 -133.84388579218975 467
-240.0797084577291 -133.84388579218975 467
-239.53294425763562 -133.84388579218975 467
-245.63890027327668 -137.56973272002372 480
-245.07691565647823 -137.56973272002372 480
-237.89265165735512 -133.84388579218975 467
-233.7882403219279 -131.83766052335608 460
-227.16489768567735 -128.39841720535549 448
-226.64037870999877 -128.39841720535549 448
-223.08752232716415 -126.67879554635519 442
-222.57002815919557 -126.67879554635519 442
-222.052533991227 -126.67879554635519 442
-221.53503982325842 -126.67879554635519 442
-221.01754565528984 -126.67879554635519 442
-220.50005148732126 -126.67879554635519 442
-222.96874588024886 -128.39841720535549 448
-222.44422690457031 -128.39841720535549 448
-224.89184687436796 -130.11803886435578 454
-221.3951889532132 -128.39841720535549 448
-220.87066997753462 -128.39841720535549 448
-220.34615100185607 -128.39841720535549 448
-186.9465218794054 -109.19597534651884 381
-186.50044658982162 -109.19597534651884 381
-236.02045729461562 -139.86256159869077 488
-235.4491062675372 -139.86256159869077 488
-234.87775524045875 -139.86256159869077 488
-237.66735673283455 -141.86878686752448 495
-237.08781009676113 -141.86878686752448 495
-239.852824762152 -143.87501213635815 502
-239.26508251708364 -143.87501213635815 502
-238.67734027201524 -143.87501213635815 502
-238.08959802694685 -143.87501213635815 502
-237.50185578187848 -143.87501213635815 502
-240.68963725851225 -146.1678410150252 510
-240.09252860316388 -146.1678410150252 510
-239.49541994781552 -146.1678410150252 510
-238.89831129246716 -146.1678410150252 510
-238.3012026371188 -146.1678410150252 510
-237.70409398177043 -146.1678410150252 510
-237.1069853264221 -146.1678410150252 510
-261.2438677464678 -163.93726482469492 572
-235.9745100614177 -148.46066989369226 518
-228.0979798607843 -143.87501213635815 502
-227.5102376157159 -143.87501213635815 502
-226.92249537064754 -143.87501213635815 502
-226.33475312557914 -143.87501213635815 502
-213.1555441381715 -135.85011106102343 474
-212.60058432908303 -135.85011106102343 474
-224.571526390374 -143.87501213635815 502
-223.9837841453056 -143.87501213635815 502
-226.95613818549995 -146.1678410150252 510
-222.80829965516884 -143.87501213635815 502
-222.22055741010044 -143.87501213635815 502
-221.63281516503207 -143.87501213635815 502
-224.56770356410652 -146.1678410150252 510
-220.4573306748953 -143.87501213635815 502
-284.1903997014964 -135.29557846976843 474
-283.63543989240793 -135.29557846976843 474
-247.21668577668663 -129.58690427273177 454
-246.6851419932981 -129.58690427273177 454
-246.15359820990955 -129.58690427273177 454
-245.622054426521 -129.58690427273177 454
-245.09051064313246 -129.58690427273177 454
-244.55896685974392 -129.58690427273177 454
-244.02742307635538 -129.58690427273177 454
-243.49587929296683 -129.58690427273177 454
-242.9643355095783 -129.58690427273177 454
-272.3363959919753 -145.5711920244344 510
-271.73928733662694 -145.5711920244344 510
-271.1421786812786 -145.5711920244344 510
-247.73440725903808 -133.2975425008056 467
-247.1876430589446 -133.2975425008056 467
-246.64087885885107 -133.2975425008056 467
-246.09411465875758 -133.2975425008056 467
-245.54735045866408 -133.2975425008056 467
-245.0005862585706 -133.2975425008056 467
-244.4538220584771 -133.2975425008056 467
-243.90705785838358 -133.2975425008056 467
-243.3602936582901 -133.2975425008056 467
-242.8135294581966 -133.2975425008056 467
-242.2667652581031 -133.2975425008056 467
-241.7200010580096 -133.2975425008056 467
-241.1732368579161 -133.2975425008056 467
-240.6264726578226 -133.2975425008056 467
-240.0797084577291 -133.2975425008056 467
-246.20088489007514 -137.0081807288794 480
-245.63890027327668 -137.0081807288794 480
-245.07691565647823 -137.0081807288794 480
-244.51493103967977 -137.0081807288794 480
-243.9529464228813 -137.0081807288794 480
-243.39096180608286 -137.0081807288794 480
-242.8289771892844 -137.0081807288794 480
-223.08752232716415 -126.1616997545098 442
-222.57002815919557 -126.1616997545098 442
-222.052533991227 -126.1616997545098 442
-221.53503982325842 -126.1616997545098 442
-221.01754565528984 -126.1616997545098 442
-223.49326485592744 -127.87430201362078 448
-222.96874588024886 -127.87430201362078 448
-261.173355695991 -150.13813138206368 526
-222.7656717408138 -129.58690427273177 454
-238.87721243000777 -139.29165040769408 488
-236.02045729461562 -139.29165040769408 488
-235.4491062675372 -139.29165040769408 488
-234.87775524045875 -139.29165040769408 488
-237.66735673283455 -141.2896863766569 495
-237.08781009676113 -141.2896863766569 495
-239.852824762152 -143.28772234561973 502
-239.26508251708364 -143.28772234561973 502
-238.67734027201524 -143.28772234561973 502
-238.08959802694685 -143.28772234561973 502
-241.28674591386059 -145.5711920244344 510
-240.68963725851225 -145.5711920244344 510
-240.09252860316388 -145.5711920244344 510
-239.49541994781552 -145.5711920244344 510
-238.89831129246716 -145.5711920244344 510
-238.3012026371188 -145.5711920244344 510
