-216.3506290451804 -134.87201701600787 637
-215.60482862663744 -134.87201701600787 637
-214.8590282080945 -134.87201701600787 637
-214.11322778955153 -134.87201701600787 637
-213.3674273710086 -134.87201701600787 637
-212.62162695246565 -134.87201701600787 637
-211.8758265339227 -134.87201701600787 637
-211.13002611537974 -134.87201701600787 637
-210.38422569683678 -134.87201701600787 637
-209.63842527829382 -134.87201701600787 637
-208.8926248597509 -134.87201701600787 637
-208.14682444120794 -134.87201701600787 637
-207.40102402266498 -134.87201701600787 637
-206.65522360412203 -134.87201701600787 637
-205.90942318557907 -134.87201701600787 637
-205.16362276703612 -134.87201701600787 637
-204.4178223484932 -134.87201701600787 637
-203.67202192995023 -134.87201701600787 637
-202.92622151140728 -134.87201701600787 637
-202.18042109286432 -134.87201701600787 637
-201.43462067432137 -134.87201701600787 637
-196.90818313950004 -132.33125688383817 625
-196.17643233637705 -132.33125688383817 625
-195.44468153325406 -132.33125688383817 625
-194.71293073013106 -132.33125688383817 625
-190.56711116029274 -130.00222676268262 614
-170.6778958022153 -116.87496607980587 552
-170.03161349289707 -116.87496607980587 552
-169.38533118357884 -116.87496607980587 552
-168.73904887426062 -116.87496607980587 552
-168.0927665649424 -116.87496607980587 552
-173.51338585908883 -121.10956630008869 572
-238.73153442249043 -129.28390817401052 614
-238.0126624335024 -129.28390817401052 614
-237.29379044451437 -129.28390817401052 614
-232.33660558417327 -126.967746952652 603
-231.6306124093202 -126.967746952652 603
-230.92461923446714 -126.967746952652 603
-230.21862605961408 -126.967746952652 603
-229.51263288476105 -126.967746952652 603
-228.80663970990798 -126.967746952652 603
-228.10064653505492 -126.967746952652 603
-227.39465336020186 -126.967746952652 603
-226.6886601853488 -126.967746952652 603
-221.86026346635734 -124.65158573129352 592
-221.16714910563923 -124.65158573129352 592
-220.47403474492114 -124.65158573129352 592
-219.78092038420306 -124.65158573129352 592
-219.08780602348494 -124.65158573129352 592
-218.39469166276686 -124.65158573129352 592
-217.70157730204875 -124.65158573129352 592
-221.04071478652432 -126.967746952652 603
-220.33472161167126 -126.967746952652 603
-219.6287284368182 -126.967746952652 603
-218.92273526196513 -126.967746952652 603
-218.21674208711207 -126.967746952652 603
-221.47860668677782 -129.28390817401052 614
-220.7597346977898 -129.28390817401052 614
-220.04086270880177 -129.28390817401052 614
-223.25121205192767 -131.60006939536902 625
-222.51946124880467 -131.60006939536902 625
-221.78771044568168 -131.60006939536902 625
-221.05595964255872 -131.60006939536902 625
-220.32420883943573 -131.60006939536902 625
-219.59245803631273 -131.60006939536902 625
-218.86070723318974 -131.60006939536902 625
-218.12895643006675 -131.60006939536902 625
-221.57123197498106 -134.1267907277601 637
-220.8254315564381 -134.1267907277601 637
-220.07963113789515 -134.1267907277601 637
-219.3338307193522 -134.1267907277601 637
-218.58803030080924 -134.1267907277601 637
-217.8422298822663 -134.1267907277601 637
-217.09642946372335 -134.1267907277601 637
-216.3506290451804 -134.1267907277601 637
-215.60482862663744 -134.1267907277601 637
-214.8590282080945 -134.1267907277601 637
-214.11322778955153 -134.1267907277601 637
-213.3674273710086 -134.1267907277601 637
-212.62162695246565 -134.1267907277601 637
-211.8758265339227 -134.1267907277601 637
-211.13002611537974 -134.1267907277601 637
-210.38422569683678 -134.1267907277601 637
-209.63842527829382 -134.1267907277601 637
-208.8926248597509 -134.1267907277601 637
-208.14682444120794 -134.1267907277601 637
-207.40102402266498 -134.1267907277601 637
-206.65522360412203 -134.1267907277601 637
-205.90942318557907 -134.1267907277601 637
-205.16362276703612 -134.1267907277601 637
-204.4178223484932 -134.1267907277601 637
-203.67202192995023 -134.1267907277601 637
-202.92622151140728 -134.1267907277601 637
-202.18042109286432 -134.1267907277601 637
-158.74439494271482 -105.70117573836039 502
-158.15665269764642 -105.70117573836039 502
-192.7237271272568 -129.28390817401052 614
-192.0048551382688 -129.28390817401052 614
-194.71293073013106 -131.60006939536902 625
-190.56711116029274 -129.28390817401052 614
-170.6778958022153 -116.22918128998991 552
-170.03161349289707 -116.22918128998991 552
-169.38533118357884 -116.22918128998991 552
-168.73904887426062 -116.22918128998991 552
-168.0927665649424 -116.22918128998991 552
-170.4799350573565 -118.3347824003158 562
-238.73153442249043 -128.56558958533842 614
-238.0126624335024 -128.56558958533842 614
-237.29379044451437 -128.56558958533842 614
-232.33660558417327 -126.26229726377697 603
-231.6306124093202 -126.26229726377697 603
-230.92461923446714 -126.26229726377697 603
-230.21862605961408 -126.26229726377697 603
-229.51263288476105 -126.26229726377697 603
-228.80663970990798 -126.26229726377697 603
-228.10064653505492 -126.26229726377697 603
-227.39465336020186 -126.26229726377697 603
-226.6886601853488 -126.26229726377697 603
-225.98266701049573 -126.26229726377697 603
-221.16714910563923 -123.95900494221554 592
-220.47403474492114 -123.95900494221554 592
-219.78092038420306 -123.95900494221554 592
-219.08780602348494 -123.95900494221554 592
-218.39469166276686 -123.95900494221554 592
-221.74670796137735 -126.26229726377697 603
-221.04071478652432 -126.26229726377697 603
-220.33472161167126 -126.26229726377697 603
-219.6287284368182 -126.26229726377697 603
-218.92273526196513 -126.26229726377697 603
-218.21674208711207 -126.26229726377697 603
-221.47860668677782 -128.56558958533842 614
-220.7597346977898 -128.56558958533842 614
-220.04086270880177 -128.56558958533842 614
-223.25121205192767 -130.86888190689984 625
-222.51946124880467 -130.86888190689984 625
-221.78771044568168 -130.86888190689984 625
-221.05595964255872 -130.86888190689984 625
-220.32420883943573 -130.86888190689984 625
-219.59245803631273 -130.86888190689984 625
-218.86070723318974 -130.86888190689984 625
-218.12895643006675 -130.86888190689984 625
-217.39720562694376 -130.86888190689984 625
-216.66545482382077 -130.86888190689984 625
-215.93370402069777 -130.86888190689984 625
-215.20195321757478 -130.86888190689984 625
-214.4702024144518 -130.86888190689984 625
-217.8422298822663 -133.38156443951235 637
-217.09642946372335 -133.38156443951235 637
-216.3506290451804 -133.38156443951235 637
-215.60482862663744 -133.38156443951235 637
-214.8590282080945 -133.38156443951235 637
-214.11322778955153 -133.38156443951235 637
-213.3674273710086 -133.38156443951235 637
-212.62162695246565 -133.38156443951235 637
-211.8758265339227 -133.38156443951235 637
-211.13002611537974 -133.38156443951235 637
-210.38422569683678 -133.38156443951235 637
-209.63842527829382 -133.38156443951235 637
-208.8926248597509 -133.38156443951235 637
-208.14682444120794 -133.38156443951235 637
-207.40102402266498 -133.38156443951235 637
-206.65522360412203 -133.38156443951235 637
-205.90942318557907 -133.38156443951235 637
-205.16362276703612 -133.38156443951235 637
-204.4178223484932 -133.38156443951235 637
-203.67202192995023 -133.38156443951235 637
-202.92622151140728 -133.38156443951235 637
-146.00155997286905 -96.31949708347828 460
-145.46299138177054 -96.31949708347828 460
-144.92442279067203 -96.31949708347828 460
-155.3717344104106 -103.64815447026469 495
-156.98116820750965 -105.11388594762197 502
-166.6742687049922 -112.02376291230628 535
-168.5308491205846 -113.69888460071459 543
-170.6778958022153 -115.58339650017395 552
-170.03161349289707 -115.58339650017395 552
-169.38533118357884 -115.58339650017395 552
-168.73904887426062 -115.58339650017395 552
-168.0927665649424 -115.58339650017395 552
-167.44648425562417 -115.58339650017395 552
-172.84368752407065 -119.77120072119475 572
-238.73153442249043 -127.84727099666631 614
-238.0126624335024 -127.84727099666631 614
-237.29379044451437 -127.84727099666631 614
-232.33660558417327 -125.55684757490192 603
-231.6306124093202 -125.55684757490192 603
-230.92461923446714 -125.55684757490192 603
-230.21862605961408 -125.55684757490192 603
-229.51263288476105 -125.55684757490192 603
-228.80663970990798 -125.55684757490192 603
-228.10064653505492 -125.55684757490192 603
-227.39465336020186 -125.55684757490192 603
-226.6886601853488 -125.55684757490192 603
-225.98266701049573 -125.55684757490192 603
-225.27667383564267 -125.55684757490192 603
-220.47403474492114 -123.26642415313756 592
-219.78092038420306 -123.26642415313756 592
-219.08780602348494 -123.26642415313756 592
-222.45270113623042 -125.55684757490192 603
-221.74670796137735 -125.55684757490192 603
-221.04071478652432 -125.55684757490192 603
-220.33472161167126 -125.55684757490192 603
-219.6287284368182 -125.55684757490192 603
-218.92273526196513 -125.55684757490192 603
-222.19747867576584 -127.84727099666631 614
-221.47860668677782 -127.84727099666631 614
-220.7597346977898 -127.84727099666631 614
-220.04086270880177 -127.84727099666631 614
-223.25121205192767 -130.1376944184307 625
-222.51946124880467 -130.1376944184307 625
-221.78771044568168 -130.1376944184307 625
-221.05595964255872 -130.1376944184307 625
-220.32420883943573 -130.1376944184307 625
-219.59245803631273 -130.1376944184307 625
-218.86070723318974 -130.1376944184307 625
-218.12895643006675 -130.1376944184307 625
-217.39720562694376 -130.1376944184307 625
-216.66545482382077 -130.1376944184307 625
-215.93370402069777 -130.1376944184307 625
-215.20195321757478 -130.1376944184307 625
-214.4702024144518 -130.1376944184307 625
-213.7384516113288 -130.1376944184307 625
-217.09642946372335 -132.63633815126457 637
-216.3506290451804 -132.63633815126457 637
-215.60482862663744 -132.63633815126457 637
-214.8590282080945 -132.63633815126457 637
-214.11322778955153 -132.63633815126457 637
-213.3674273710086 -132.63633815126457 637
-212.62162695246565 -132.63633815126457 637
-211.8758265339227 -132.63633815126457 637
-211.13002611537974 -132.63633815126457 637
-210.38422569683678 -132.63633815126457 637
-209.63842527829382 -132.63633815126457 637
-208.8926248597509 -132.63633815126457 637
-208.14682444120794 -132.63633815126457 637
-207.40102402266498 -132.63633815126457 637
-206.65522360412203 -132.63633815126457 637
-205.90942318557907 -132.63633815126457 637
-205.16362276703612 -132.63633815126457 637
-204.4178223484932 -132.63633815126457 637
-203.67202192995023 -132.63633815126457 637
-146.54012856396758 -95.78134309196498 460
-146.00155997286905 -95.78134309196498 460
-145.46299138177054 -95.78134309196498 460
-144.92442279067203 -95.78134309196498 460
-144.3858541995735 -95.78134309196498 460
-146.03626604164742 -97.23888526945142 467
-166.6742687049922 -111.39786642217668 535
-168.5308491205846 -113.06362891073259 543
-170.6778958022153 -114.93761171035798 552
-170.03161349289707 -114.93761171035798 552
-169.38533118357884 -114.93761171035798 552
-168.73904887426062 -114.93761171035798 552
-168.0927665649424 -114.93761171035798 552
-167.44648425562417 -114.93761171035798 552
-169.8219447351883 -117.01981482105288 562
-248.4200470425273 -131.8911118630168 637
-243.0084837362484 -129.40650692996155 625
-238.0126624335024 -127.1289524079942 614
-237.29379044451437 -127.1289524079942 614
-232.33660558417327 -124.85139788602689 603
-231.6306124093202 -124.85139788602689 603
-230.92461923446714 -124.85139788602689 603
-230.21862605961408 -124.85139788602689 603
-229.51263288476105 -124.85139788602689 603
-228.80663970990798 -124.85139788602689 603
-228.10064653505492 -124.85139788602689 603
-227.39465336020186 -124.85139788602689 603
-226.6886601853488 -124.85139788602689 603
-225.98266701049573 -124.85139788602689 603
-225.27667383564267 -124.85139788602689 603
-224.5706806607896 -124.85139788602689 603
-223.86468748593654 -124.85139788602689 603
-219.08780602348494 -122.57384336405957 592
-222.45270113623042 -124.85139788602689 603
-221.74670796137735 -124.85139788602689 603
-221.04071478652432 -124.85139788602689 603
-220.33472161167126 -124.85139788602689 603
-219.6287284368182 -124.85139788602689 603
-222.91635066475388 -127.1289524079942 614
-222.19747867576584 -127.1289524079942 614
-221.47860668677782 -127.1289524079942 614
-220.7597346977898 -127.1289524079942 614
-220.04086270880177 -127.1289524079942 614
-223.25121205192767 -129.40650692996155 625
-222.51946124880467 -129.40650692996155 625
-221.78771044568168 -129.40650692996155 625
-221.05595964255872 -129.40650692996155 625
-220.32420883943573 -129.40650692996155 625
-219.59245803631273 -129.40650692996155 625
-218.86070723318974 -129.40650692996155 625
-218.12895643006675 -129.40650692996155 625
-217.39720562694376 -129.40650692996155 625
-216.66545482382077 -129.40650692996155 625
-215.93370402069777 -129.40650692996155 625
-215.20195321757478 -129.40650692996155 625
-214.4702024144518 -129.40650692996155 625
-213.7384516113288 -129.40650692996155 625
-213.0067008082058 -129.40650692996155 625
-216.3506290451804 -131.8911118630168 637
-215.60482862663744 -131.8911118630168 637
-214.8590282080945 -131.8911118630168 637
-214.11322778955153 -131.8911118630168 637
-213.3674273710086 -131.8911118630168 637
-212.62162695246565 -131.8911118630168 637
-211.8758265339227 -131.8911118630168 637
-211.13002611537974 -131.8911118630168 637
-210.38422569683678 -131.8911118630168 637
-209.63842527829382 -131.8911118630168 637
-208.8926248597509 -131.8911118630168 637
-208.14682444120794 -131.8911118630168 637
-207.40102402266498 -131.8911118630168 637
-206.65522360412203 -131.8911118630168 637
-205.90942318557907 -131.8911118630168 637
-205.16362276703612 -131.8911118630168 637
-147.6172657461646 -95.24318910045169 460
-147.0786971550661 -95.24318910045169 460
-146.54012856396758 -95.24318910045169 460
-146.00155997286905 -95.24318910045169 460
-145.46299138177054 -95.24318910045169 460
-144.92442279067203 -95.24318910045169 460
-144.3858541995735 -95.24318910045169 460
-143.84728560847498 -95.24318910045169 460
-166.6742687049922 -110.77196993204709 535
-170.03161349289707 -114.29182692054204 552
-169.38533118357884 -114.29182692054204 552
-168.73904887426062 -114.29182692054204 552
-168.0927665649424 -114.29182692054204 552
-162.28961789267925 -110.77196993204709 535
-161.66323920520597 -110.77196993204709 535
-248.4200470425273 -131.14588557476904 637
-243.0084837362484 -128.67531944149238 625
-238.0126624335024 -126.41063381932211 614
-237.29379044451437 -126.41063381932211 614
-232.33660558417327 -124.14594819715184 603
-231.6306124093202 -124.14594819715184 603
-230.92461923446714 -124.14594819715184 603
-230.21862605961408 -124.14594819715184 603
-229.51263288476105 -124.14594819715184 603
-228.80663970990798 -124.14594819715184 603
-228.10064653505492 -124.14594819715184 603
-227.39465336020186 -124.14594819715184 603
-226.6886601853488 -124.14594819715184 603
-225.98266701049573 -124.14594819715184 603
-225.27667383564267 -124.14594819715184 603
-224.5706806607896 -124.14594819715184 603
-223.86468748593654 -124.14594819715184 603
-223.15869431108348 -124.14594819715184 603
-222.45270113623042 -124.14594819715184 603
-221.74670796137735 -124.14594819715184 603
-221.04071478652432 -124.14594819715184 603
-220.33472161167126 -124.14594819715184 603
-219.6287284368182 -124.14594819715184 603
-222.91635066475388 -126.41063381932211 614
-222.19747867576584 -126.41063381932211 614
-221.47860668677782 -126.41063381932211 614
-220.7597346977898 -126.41063381932211 614
-220.04086270880177 -126.41063381932211 614
-223.25121205192767 -128.67531944149238 625
-222.51946124880467 -128.67531944149238 625
-221.78771044568168 -128.67531944149238 625
-221.05595964255872 -128.67531944149238 625
-220.32420883943573 -128.67531944149238 625
-219.59245803631273 -128.67531944149238 625
-218.86070723318974 -128.67531944149238 625
-218.12895643006675 -128.67531944149238 625
-217.39720562694376 -128.67531944149238 625
-216.66545482382077 -128.67531944149238 625
-215.93370402069777 -128.67531944149238 625
-215.20195321757478 -128.67531944149238 625
-214.4702024144518 -128.67531944149238 625
-213.7384516113288 -128.67531944149238 625
-213.0067008082058 -128.67531944149238 625
-216.3506290451804 -131.14588557476904 637
-215.60482862663744 -131.14588557476904 637
-214.8590282080945 -131.14588557476904 637
-214.11322778955153 -131.14588557476904 637
-213.3674273710086 -131.14588557476904 637
-212.62162695246565 -131.14588557476904 637
-211.8758265339227 -131.14588557476904 637
-211.13002611537974 -131.14588557476904 637
-210.38422569683678 -131.14588557476904 637
-209.63842527829382 -131.14588557476904 637
-208.8926248597509 -131.14588557476904 637
-208.14682444120794 -131.14588557476904 637
-207.40102402266498 -131.14588557476904 637
-206.65522360412203 -131.14588557476904 637
-205.90942318557907 -131.14588557476904 637
-205.16362276703612 -131.14588557476904 637
-145.6918231494755 -93.46975204230007 454
-130.77214594874357 -84.20512904251262 409
-144.62873558269845 -93.46975204230007 454
-144.0971917993099 -93.46975204230007 454
-145.46299138177054 -94.70503510893839 460
-144.92442279067203 -94.70503510893839 460
-144.3858541995735 -94.70503510893839 460
-169.38533118357884 -113.64604213072607 552
-168.73904887426062 -113.64604213072607 552
-162.91599658015252 -110.14607344191748 535
-162.28961789267925 -110.14607344191748 535
-161.66323920520597 -110.14607344191748 535
-248.4200470425273 -130.40065928652126 637
-238.73153442249043 -125.69231523065001 614
-238.0126624335024 -125.69231523065001 614
-237.29379044451437 -125.69231523065001 614
-232.33660558417327 -123.4404985082768 603
-231.6306124093202 -123.4404985082768 603
-230.92461923446714 -123.4404985082768 603
-230.21862605961408 -123.4404985082768 603
-229.51263288476105 -123.4404985082768 603
-228.80663970990798 -123.4404985082768 603
-228.10064653505492 -123.4404985082768 603
-227.39465336020186 -123.4404985082768 603
-226.6886601853488 -123.4404985082768 603
-225.98266701049573 -123.4404985082768 603
-225.27667383564267 -123.4404985082768 603
-224.5706806607896 -123.4404985082768 603
-223.86468748593654 -123.4404985082768 603
-223.15869431108348 -123.4404985082768 603
-222.45270113623042 -123.4404985082768 603
-221.74670796137735 -123.4404985082768 603
-221.04071478652432 -123.4404985082768 603
-220.33472161167126 -123.4404985082768 603
-223.6352226537419 -125.69231523065001 614
-222.91635066475388 -125.69231523065001 614
-222.19747867576584 -125.69231523065001 614
-221.47860668677782 -125.69231523065001 614
-220.7597346977898 -125.69231523065001 614
-220.04086270880177 -125.69231523065001 614
-223.25121205192767 -127.94413195302323 625
-222.51946124880467 -127.94413195302323 625
-221.78771044568168 -127.94413195302323 625
-221.05595964255872 -127.94413195302323 625
-220.32420883943573 -127.94413195302323 625
-219.59245803631273 -127.94413195302323 625
-218.86070723318974 -127.94413195302323 625
-218.12895643006675 -127.94413195302323 625
-217.39720562694376 -127.94413195302323 625
-216.66545482382077 -127.94413195302323 625
-215.93370402069777 -127.94413195302323 625
-215.20195321757478 -127.94413195302323 625
-214.4702024144518 -127.94413195302323 625
-213.7384516113288 -127.94413195302323 625
-217.09642946372335 -130.40065928652126 637
-216.3506290451804 -130.40065928652126 637
-215.60482862663744 -130.40065928652126 637
-214.8590282080945 -130.40065928652126 637
-214.11322778955153 -130.40065928652126 637
-213.3674273710086 -130.40065928652126 637
-212.62162695246565 -130.40065928652126 637
-211.8758265339227 -130.40065928652126 637
-211.13002611537974 -130.40065928652126 637
-210.38422569683678 -130.40065928652126 637
-209.63842527829382 -130.40065928652126 637
-208.8926248597509 -130.40065928652126 637
-208.14682444120794 -130.40065928652126 637
-207.40102402266498 -130.40065928652126 637
-206.65522360412203 -130.40065928652126 637
-205.90942318557907 -130.40065928652126 637
-205.16362276703612 -130.40065928652126 637
-131.25100367430724 -83.7266399500584 409
-129.17346445792762 -82.70308689443421 404
-137.30172915450004 -88.23027339480481 431
-144.0971917993099 -92.93861745067608 454
-145.46299138177054 -94.16688111742509 460
-144.92442279067203 -94.16688111742509 460
-168.73904887426062 -113.00025734091011 552
-160.17535364702846 -107.67778145166433 526
-159.55951217112013 -107.67778145166433 526
-158.94367069521184 -107.67778145166433 526
-255.77290642668996 -132.30146224313623 650
-255.01188559144205 -132.30146224313623 650
-249.16584746107026 -129.6554329982735 637
-243.7402345393714 -127.21294446455407 625
-238.73153442249043 -124.9739966419779 614
-238.0126624335024 -124.9739966419779 614
-233.04259875902633 -122.73504881940175 603
-232.33660558417327 -122.73504881940175 603
-231.6306124093202 -122.73504881940175 603
-230.92461923446714 -122.73504881940175 603
-230.21862605961408 -122.73504881940175 603
-229.51263288476105 -122.73504881940175 603
-228.80663970990798 -122.73504881940175 603
-228.10064653505492 -122.73504881940175 603
-227.39465336020186 -122.73504881940175 603
-226.6886601853488 -122.73504881940175 603
-225.98266701049573 -122.73504881940175 603
-225.27667383564267 -122.73504881940175 603
-224.5706806607896 -122.73504881940175 603
-223.86468748593654 -122.73504881940175 603
-223.15869431108348 -122.73504881940175 603
-222.45270113623042 -122.73504881940175 603
-221.74670796137735 -122.73504881940175 603
-221.04071478652432 -122.73504881940175 603
-220.33472161167126 -122.73504881940175 603
-223.6352226537419 -124.9739966419779 614
-222.91635066475388 -124.9739966419779 614
-222.19747867576584 -124.9739966419779 614
-221.47860668677782 -124.9739966419779 614
-220.7597346977898 -124.9739966419779 614
-220.04086270880177 -124.9739966419779 614
-223.25121205192767 -127.21294446455407 625
-222.51946124880467 -127.21294446455407 625
-221.78771044568168 -127.21294446455407 625
-221.05595964255872 -127.21294446455407 625
-220.32420883943573 -127.21294446455407 625
-219.59245803631273 -127.21294446455407 625
-218.86070723318974 -127.21294446455407 625
-218.12895643006675 -127.21294446455407 625
-217.39720562694376 -127.21294446455407 625
-216.66545482382077 -127.21294446455407 625
-215.93370402069777 -127.21294446455407 625
-215.20195321757478 -127.21294446455407 625
-214.4702024144518 -127.21294446455407 625
-213.7384516113288 -127.21294446455407 625
-217.09642946372335 -129.6554329982735 637
-216.3506290451804 -129.6554329982735 637
-215.60482862663744 -129.6554329982735 637
-214.8590282080945 -129.6554329982735 637
-214.11322778955153 -129.6554329982735 637
-213.3674273710086 -129.6554329982735 637
-212.62162695246565 -129.6554329982735 637
-211.8758265339227 -129.6554329982735 637
-211.13002611537974 -129.6554329982735 637
-210.38422569683678 -129.6554329982735 637
-209.63842527829382 -129.6554329982735 637
-208.8926248597509 -129.6554329982735 637
-208.14682444120794 -129.6554329982735 637
-207.40102402266498 -129.6554329982735 637
-206.65522360412203 -129.6554329982735 637
-205.90942318557907 -129.6554329982735 637
-130.119471896205 -82.23044730188774 404
-129.6464681770663 -82.23044730188774 404
-129.17346445792762 -82.23044730188774 404
-130.29328822317987 -83.24815085760419 409
-144.0971917993099 -92.40748285905208 454
-160.17535364702846 -107.0624140613687 526
-159.55951217112013 -107.0624140613687 526
-158.94367069521184 -107.0624140613687 526
-256.53392726193783 -131.5410272551283 650
-255.77290642668996 -131.5410272551283 650
-255.01188559144205 -131.5410272551283 650
-254.25086475619412 -131.5410272551283 650
-248.4200470425273 -128.91020671002573 637
-238.73153442249043 -124.25567805330581 614
-238.0126624335024 -124.25567805330581 614
-237.29379044451437 -124.25567805330581 614
-232.33660558417327 -122.0295991305267 603
-231.6306124093202 -122.0295991305267 603
-230.92461923446714 -122.0295991305267 603
-230.21862605961408 -122.0295991305267 603
-229.51263288476105 -122.0295991305267 603
-228.80663970990798 -122.0295991305267 603
-228.10064653505492 -122.0295991305267 603
-227.39465336020186 -122.0295991305267 603
-226.6886601853488 -122.0295991305267 603
-225.98266701049573 -122.0295991305267 603
-225.27667383564267 -122.0295991305267 603
-224.5706806607896 -122.0295991305267 603
-223.86468748593654 -122.0295991305267 603
-223.15869431108348 -122.0295991305267 603
-222.45270113623042 -122.0295991305267 603
-221.74670796137735 -122.0295991305267 603
-221.04071478652432 -122.0295991305267 603
-220.33472161167126 -122.0295991305267 603
-223.6352226537419 -124.25567805330581 614
-222.91635066475388 -124.25567805330581 614
-222.19747867576584 -124.25567805330581 614
-221.47860668677782 -124.25567805330581 614
-220.7597346977898 -124.25567805330581 614
-220.04086270880177 -124.25567805330581 614
-223.25121205192767 -126.48175697608491 625
-222.51946124880467 -126.48175697608491 625
-221.78771044568168 -126.48175697608491 625
-221.05595964255872 -126.48175697608491 625
-220.32420883943573 -126.48175697608491 625
-219.59245803631273 -126.48175697608491 625
-218.86070723318974 -126.48175697608491 625
-218.12895643006675 -126.48175697608491 625
-217.39720562694376 -126.48175697608491 625
-216.66545482382077 -126.48175697608491 625
-215.93370402069777 -126.48175697608491 625
-215.20195321757478 -126.48175697608491 625
-214.4702024144518 -126.48175697608491 625
-217.8422298822663 -128.91020671002573 637
-217.09642946372335 -128.91020671002573 637
-216.3506290451804 -128.91020671002573 637
-215.60482862663744 -128.91020671002573 637
-214.8590282080945 -128.91020671002573 637
-214.11322778955153 -128.91020671002573 637
-213.3674273710086 -128.91020671002573 637
-212.62162695246565 -128.91020671002573 637
-211.8758265339227 -128.91020671002573 637
-211.13002611537974 -128.91020671002573 637
-210.38422569683678 -128.91020671002573 637
-209.63842527829382 -128.91020671002573 637
-208.8926248597509 -128.91020671002573 637
-208.14682444120794 -128.91020671002573 637
-211.6336979823112 -131.5410272551283 650
-210.87267714706329 -131.5410272551283 650
-205.90942318557907 -128.91020671002573 637
-130.119471896205 -81.75780770934128 404
-129.6464681770663 -81.75780770934128 404
-129.17346445792762 -81.75780770934128 404
-128.7004607387889 -81.75780770934128 404
-138.38408727863242 -88.23367366651682 436
-160.17535364702846 -106.44704667107305 526
-159.55951217112013 -106.44704667107305 526
-158.94367069521184 -106.44704667107305 526
-257.2949480971858 -130.78059226712037 650
-256.53392726193783 -130.78059226712037 650
-255.77290642668996 -130.78059226712037 650
-255.01188559144205 -130.78059226712037 650
-254.25086475619412 -130.78059226712037 650
-253.4898439209462 -130.78059226712037 650
-238.73153442249043 -123.53735946463371 614
-238.0126624335024 -123.53735946463371 614
-237.29379044451437 -123.53735946463371 614
-232.33660558417327 -121.32414944165167 603
-231.6306124093202 -121.32414944165167 603
-230.92461923446714 -121.32414944165167 603
-230.21862605961408 -121.32414944165167 603
-229.51263288476105 -121.32414944165167 603
-228.80663970990798 -121.32414944165167 603
-228.10064653505492 -121.32414944165167 603
-227.39465336020186 -121.32414944165167 603
-226.6886601853488 -121.32414944165167 603
-225.98266701049573 -121.32414944165167 603
-221.16714910563923 -119.11093941866964 592
-220.47403474492114 -119.11093941866964 592
-223.86468748593654 -121.32414944165167 603
-223.15869431108348 -121.32414944165167 603
-222.45270113623042 -121.32414944165167 603
-221.74670796137735 -121.32414944165167 603
-221.04071478652432 -121.32414944165167 603
-220.33472161167126 -121.32414944165167 603
-219.6287284368182 -121.32414944165167 603
-222.91635066475388 -123.53735946463371 614
-222.19747867576584 -123.53735946463371 614
-221.47860668677782 -123.53735946463371 614
-220.7597346977898 -123.53735946463371 614
-220.04086270880177 -123.53735946463371 614
-223.25121205192767 -125.75056948761575 625
-222.51946124880467 -125.75056948761575 625
-221.78771044568168 -125.75056948761575 625
-221.05595964255872 -125.75056948761575 625
-220.32420883943573 -125.75056948761575 625
-219.59245803631273 -125.75056948761575 625
-218.86070723318974 -125.75056948761575 625
-218.12895643006675 -125.75056948761575 625
-217.39720562694376 -125.75056948761575 625
-216.66545482382077 -125.75056948761575 625
-215.93370402069777 -125.75056948761575 625
-215.20195321757478 -125.75056948761575 625
-214.4702024144518 -125.75056948761575 625
-217.8422298822663 -128.16498042177798 637
-217.09642946372335 -128.16498042177798 637
-216.3506290451804 -128.16498042177798 637
-215.60482862663744 -128.16498042177798 637
-214.8590282080945 -128.16498042177798 637
-214.11322778955153 -128.16498042177798 637
-213.3674273710086 -128.16498042177798 637
-212.62162695246565 -128.16498042177798 637
-211.8758265339227 -128.16498042177798 637
-211.13002611537974 -128.16498042177798 637
-210.38422569683678 -128.16498042177798 637
-209.63842527829382 -128.16498042177798 637
-208.8926248597509 -128.16498042177798 637
-212.3947188175591 -130.78059226712037 650
-211.6336979823112 -130.78059226712037 650
-210.87267714706329 -130.78059226712037 650
-205.90942318557907 -128.16498042177798 637
-130.119471896205 -81.28516811679481 404
-128.36283977927357 -80.48036447207407 400
-129.17346445792762 -81.28516811679481 404
-135.3903361732309 -85.51038725157872 425
-258.0559689324337 -130.02015727911245 650
-257.2949480971858 -130.02015727911245 650
-256.53392726193783 -130.02015727911245 650
-255.77290642668996 -130.02015727911245 650
-255.01188559144205 -130.02015727911245 650
-254.25086475619412 -130.02015727911245 650
-253.4898439209462 -130.02015727911245 650
-238.73153442249043 -122.8190408759616 614
-238.0126624335024 -122.8190408759616 614
-237.29379044451437 -122.8190408759616 614
-232.33660558417327 -120.61869975277662 603
-231.6306124093202 -120.61869975277662 603
-230.92461923446714 -120.61869975277662 603
-230.21862605961408 -120.61869975277662 603
-229.51263288476105 -120.61869975277662 603
-228.80663970990798 -120.61869975277662 603
-228.10064653505492 -120.61869975277662 603
-227.39465336020186 -120.61869975277662 603
-226.6886601853488 -120.61869975277662 603
-221.86026346635734 -118.41835862959165 592
-221.16714910563923 -118.41835862959165 592
-220.47403474492114 -118.41835862959165 592
-223.86468748593654 -120.61869975277662 603
-223.15869431108348 -120.61869975277662 603
-222.45270113623042 -120.61869975277662 603
-221.74670796137735 -120.61869975277662 603
-221.04071478652432 -120.61869975277662 603
-220.33472161167126 -120.61869975277662 603
-223.6352226537419 -122.8190408759616 614
-222.91635066475388 -122.8190408759616 614
-222.19747867576584 -122.8190408759616 614
-221.47860668677782 -122.8190408759616 614
-220.7597346977898 -122.8190408759616 614
-220.04086270880177 -122.8190408759616 614
-223.25121205192767 -125.0193819991466 625
-222.51946124880467 -125.0193819991466 625
-221.78771044568168 -125.0193819991466 625
-221.05595964255872 -125.0193819991466 625
-220.32420883943573 -125.0193819991466 625
-219.59245803631273 -125.0193819991466 625
-218.86070723318974 -125.0193819991466 625
-218.12895643006675 -125.0193819991466 625
-217.39720562694376 -125.0193819991466 625
-216.66545482382077 -125.0193819991466 625
-215.93370402069777 -125.0193819991466 625
-215.20195321757478 -125.0193819991466 625
-214.4702024144518 -125.0193819991466 625
-217.8422298822663 -127.4197541335302 637
-217.09642946372335 -127.4197541335302 637
-216.3506290451804 -127.4197541335302 637
-215.60482862663744 -127.4197541335302 637
-214.8590282080945 -127.4197541335302 637
-214.11322778955153 -127.4197541335302 637
-213.3674273710086 -127.4197541335302 637
-212.62162695246565 -127.4197541335302 637
-211.8758265339227 -127.4197541335302 637
-211.13002611537974 -127.4197541335302 637
-210.38422569683678 -127.4197541335302 637
-209.63842527829382 -127.4197541335302 637
-213.15573965280703 -130.02015727911245 650
-212.3947188175591 -130.02015727911245 650
-210.87267714706329 -130.02015727911245 650
-130.59247561534372 -80.81252852424835 404
-127.22077078960639 -79.01224942346064 395
-126.75830428203267 -79.01224942346064 395
-126.29583777445893 -79.01224942346064 395
-137.30172915450004 -86.2133658266115 431
-161.3780769891326 -103.61606380089269 518
-258.8169897676816 -129.25972229110454 650
-258.0559689324337 -129.25972229110454 650
-257.2949480971858 -129.25972229110454 650
-256.53392726193783 -129.25972229110454 650
-255.77290642668996 -129.25972229110454 650
-255.01188559144205 -129.25972229110454 650
-254.25086475619412 -129.25972229110454 650
-253.4898439209462 -129.25972229110454 650
-243.0084837362484 -124.28819451067744 625
-238.0126624335024 -122.10072228728951 614
-237.29379044451437 -122.10072228728951 614
-232.33660558417327 -119.91325006390159 603
-231.6306124093202 -119.91325006390159 603
-230.92461923446714 -119.91325006390159 603
-230.21862605961408 -119.91325006390159 603
-229.51263288476105 -119.91325006390159 603
-228.80663970990798 -119.91325006390159 603
-228.10064653505492 -119.91325006390159 603
-227.39465336020186 -119.91325006390159 603
-226.6886601853488 -119.91325006390159 603
-225.98266701049573 -119.91325006390159 603
-221.16714910563923 -117.72577784051367 592
-220.47403474492114 -117.72577784051367 592
-223.86468748593654 -119.91325006390159 603
-223.15869431108348 -119.91325006390159 603
-222.45270113623042 -119.91325006390159 603
-221.74670796137735 -119.91325006390159 603
-221.04071478652432 -119.91325006390159 603
-220.33472161167126 -119.91325006390159 603
-223.6352226537419 -122.10072228728951 614
-222.91635066475388 -122.10072228728951 614
-222.19747867576584 -122.10072228728951 614
-221.47860668677782 -122.10072228728951 614
-220.7597346977898 -122.10072228728951 614
-223.98296285505066 -124.28819451067744 625
-223.25121205192767 -124.28819451067744 625
-222.51946124880467 -124.28819451067744 625
-221.78771044568168 -124.28819451067744 625
-221.05595964255872 -124.28819451067744 625
-220.32420883943573 -124.28819451067744 625
-219.59245803631273 -124.28819451067744 625
-218.86070723318974 -124.28819451067744 625
-218.12895643006675 -124.28819451067744 625
-217.39720562694376 -124.28819451067744 625
-216.66545482382077 -124.28819451067744 625
-215.93370402069777 -124.28819451067744 625
-215.20195321757478 -124.28819451067744 625
-214.4702024144518 -124.28819451067744 625
-217.8422298822663 -126.67452784528244 637
-217.09642946372335 -126.67452784528244 637
-216.3506290451804 -126.67452784528244 637
-215.60482862663744 -126.67452784528244 637
-214.8590282080945 -126.67452784528244 637
-214.11322778955153 -126.67452784528244 637
-213.3674273710086 -126.67452784528244 637
-212.62162695246565 -126.67452784528244 637
-211.8758265339227 -126.67452784528244 637
-211.13002611537974 -126.67452784528244 637
-210.38422569683678 -126.67452784528244 637
-209.63842527829382 -126.67452784528244 637
-213.15573965280703 -129.25972229110454 650
-210.87267714706329 -129.25972229110454 650
-127.68323729718013 -78.55013893074813 395
-127.22077078960639 -78.55013893074813 395
-126.75830428203267 -78.55013893074813 395
-126.29583777445893 -78.55013893074813 395
-161.3780769891326 -103.01005561044946 518
-160.77160192350428 -103.01005561044946 518
-265.545812066941 -131.06927304915854 663
-259.5780106029295 -128.49928730309662 650
-258.8169897676816 -128.49928730309662 650
-258.0559689324337 -128.49928730309662 650
-257.2949480971858 -128.49928730309662 650
-256.53392726193783 -128.49928730309662 650
-255.77290642668996 -128.49928730309662 650
-255.01188559144205 -128.49928730309662 650
-254.25086475619412 -128.49928730309662 650
-253.4898439209462 -128.49928730309662 650
-243.0084837362484 -123.55700702220828 625
-238.0126624335024 -121.38240369861741 614
-237.29379044451437 -121.38240369861741 614
-232.33660558417327 -119.20780037502654 603
-231.6306124093202 -119.20780037502654 603
-230.92461923446714 -119.20780037502654 603
-230.21862605961408 -119.20780037502654 603
-229.51263288476105 -119.20780037502654 603
-228.80663970990798 -119.20780037502654 603
-228.10064653505492 -119.20780037502654 603
-227.39465336020186 -119.20780037502654 603
-226.6886601853488 -119.20780037502654 603
-225.98266701049573 -119.20780037502654 603
-225.27667383564267 -119.20780037502654 603
-224.5706806607896 -119.20780037502654 603
-223.86468748593654 -119.20780037502654 603
-223.15869431108348 -119.20780037502654 603
-222.45270113623042 -119.20780037502654 603
-221.74670796137735 -119.20780037502654 603
-221.04071478652432 -119.20780037502654 603
-220.33472161167126 -119.20780037502654 603
-223.6352226537419 -121.38240369861741 614
-222.91635066475388 -121.38240369861741 614
-222.19747867576584 -121.38240369861741 614
-221.47860668677782 -121.38240369861741 614
-220.7597346977898 -121.38240369861741 614
-223.98296285505066 -123.55700702220828 625
-223.25121205192767 -123.55700702220828 625
-222.51946124880467 -123.55700702220828 625
-221.78771044568168 -123.55700702220828 625
-221.05595964255872 -123.55700702220828 625
-220.32420883943573 -123.55700702220828 625
-219.59245803631273 -123.55700702220828 625
-218.86070723318974 -123.55700702220828 625
-218.12895643006675 -123.55700702220828 625
-217.39720562694376 -123.55700702220828 625
-216.66545482382077 -123.55700702220828 625
-215.93370402069777 -123.55700702220828 625
-215.20195321757478 -123.55700702220828 625
-214.4702024144518 -123.55700702220828 625
-217.8422298822663 -125.92930155703468 637
-217.09642946372335 -125.92930155703468 637
-216.3506290451804 -125.92930155703468 637
-215.60482862663744 -125.92930155703468 637
-214.8590282080945 -125.92930155703468 637
-214.11322778955153 -125.92930155703468 637
-213.3674273710086 -125.92930155703468 637
-212.62162695246565 -125.92930155703468 637
-211.8758265339227 -125.92930155703468 637
-211.13002611537974 -125.92930155703468 637
-210.38422569683678 -125.92930155703468 637
-213.91676048805493 -128.49928730309662 650
-213.15573965280703 -128.49928730309662 650
-215.09013069000457 -131.06927304915854 663
-125.61038128594049 -77.09957238185797 390
-125.15376878479175 -77.09957238185797 390
-135.88792671935454 -84.01876477510163 425
-161.3780769891326 -102.40404742000621 518
-160.77160192350428 -102.40404742000621 518
-267.0982945708467 -130.29362936139046 663
-261.1000522734253 -127.73885231508869 650
-260.3390314381774 -127.73885231508869 650
-259.5780106029295 -127.73885231508869 650
-258.8169897676816 -127.73885231508869 650
-258.0559689324337 -127.73885231508869 650
-257.2949480971858 -127.73885231508869 650
-256.53392726193783 -127.73885231508869 650
-255.77290642668996 -127.73885231508869 650
-255.01188559144205 -127.73885231508869 650
-254.25086475619412 -127.73885231508869 650
-253.4898439209462 -127.73885231508869 650
-243.0084837362484 -122.82581953373912 625
-238.0126624335024 -120.6640851099453 614
-237.29379044451437 -120.6640851099453 614
-232.33660558417327 -118.5023506861515 603
-231.6306124093202 -118.5023506861515 603
-230.92461923446714 -118.5023506861515 603
-230.21862605961408 -118.5023506861515 603
-229.51263288476105 -118.5023506861515 603
-228.80663970990798 -118.5023506861515 603
-228.10064653505492 -118.5023506861515 603
-227.39465336020186 -118.5023506861515 603
-226.6886601853488 -118.5023506861515 603
-225.98266701049573 -118.5023506861515 603
-225.27667383564267 -118.5023506861515 603
-224.5706806607896 -118.5023506861515 603
-223.86468748593654 -118.5023506861515 603
-223.15869431108348 -118.5023506861515 603
-222.45270113623042 -118.5023506861515 603
-221.74670796137735 -118.5023506861515 603
-221.04071478652432 -118.5023506861515 603
-224.35409464272993 -120.6640851099453 614
-223.6352226537419 -120.6640851099453 614
-222.91635066475388 -120.6640851099453 614
-222.19747867576584 -120.6640851099453 614
-221.47860668677782 -120.6640851099453 614
-220.7597346977898 -120.6640851099453 614
-223.98296285505066 -122.82581953373912 625
-223.25121205192767 -122.82581953373912 625
-222.51946124880467 -122.82581953373912 625
-221.78771044568168 -122.82581953373912 625
-221.05595964255872 -122.82581953373912 625
-220.32420883943573 -122.82581953373912 625
-219.59245803631273 -122.82581953373912 625
-218.86070723318974 -122.82581953373912 625
-218.12895643006675 -122.82581953373912 625
-217.39720562694376 -122.82581953373912 625
-216.66545482382077 -122.82581953373912 625
-215.93370402069777 -122.82581953373912 625
-215.20195321757478 -122.82581953373912 625
-214.4702024144518 -122.82581953373912 625
-217.8422298822663 -125.18407526878691 637
-217.09642946372335 -125.18407526878691 637
-216.3506290451804 -125.18407526878691 637
-215.60482862663744 -125.18407526878691 637
-214.8590282080945 -125.18407526878691 637
-214.11322778955153 -125.18407526878691 637
-213.3674273710086 -125.18407526878691 637
-212.62162695246565 -125.18407526878691 637
-211.8758265339227 -125.18407526878691 637
-211.13002611537974 -125.18407526878691 637
-210.38422569683678 -125.18407526878691 637
-213.91676048805493 -127.73885231508869 650
-217.4188544458632 -130.29362936139046 663
-216.6426131939103 -130.29362936139046 663
-215.86637194195745 -130.29362936139046 663
-210.87267714706329 -127.73885231508869 650
-126.06699378708925 -76.64331138905321 390
-125.61038128594049 -76.64331138905321 390
-125.15376878479175 -76.64331138905321 390
-161.98455205476097 -101.79803922956297 518
-158.88575147578695 -100.22586873953114 510
-160.77160192350428 -101.79803922956297 518
-264.14413561441694 -126.97841732708076 650
-263.38311477916903 -126.97841732708076 650
-262.62209394392113 -126.97841732708076 650
-261.8610731086732 -126.97841732708076 650
-261.1000522734253 -126.97841732708076 650
-260.3390314381774 -126.97841732708076 650
-259.5780106029295 -126.97841732708076 650
-258.8169897676816 -126.97841732708076 650
-258.0559689324337 -126.97841732708076 650
-257.2949480971858 -126.97841732708076 650
-256.53392726193783 -126.97841732708076 650
-255.77290642668996 -126.97841732708076 650
-255.01188559144205 -126.97841732708076 650
-254.25086475619412 -126.97841732708076 650
-243.7402345393714 -122.09463204526996 625
-243.0084837362484 -122.09463204526996 625
-238.0126624335024 -119.94576652127321 614
-237.29379044451437 -119.94576652127321 614
-232.33660558417327 -117.79690099727645 603
-231.6306124093202 -117.79690099727645 603
-230.92461923446714 -117.79690099727645 603
-230.21862605961408 -117.79690099727645 603
-229.51263288476105 -117.79690099727645 603
-228.80663970990798 -117.79690099727645 603
-228.10064653505492 -117.79690099727645 603
-227.39465336020186 -117.79690099727645 603
-226.6886601853488 -117.79690099727645 603
-225.98266701049573 -117.79690099727645 603
-225.27667383564267 -117.79690099727645 603
-224.5706806607896 -117.79690099727645 603
-223.86468748593654 -117.79690099727645 603
-223.15869431108348 -117.79690099727645 603
-222.45270113623042 -117.79690099727645 603
-221.74670796137735 -117.79690099727645 603
-221.04071478652432 -117.79690099727645 603
-224.35409464272993 -119.94576652127321 614
-223.6352226537419 -119.94576652127321 614
-222.91635066475388 -119.94576652127321 614
-222.19747867576584 -119.94576652127321 614
-221.47860668677782 -119.94576652127321 614
-220.7597346977898 -119.94576652127321 614
-223.98296285505066 -122.09463204526996 625
-223.25121205192767 -122.09463204526996 625
-222.51946124880467 -122.09463204526996 625
-221.78771044568168 -122.09463204526996 625
-221.05595964255872 -122.09463204526996 625
-220.32420883943573 -122.09463204526996 625
-219.59245803631273 -122.09463204526996 625
-218.86070723318974 -122.09463204526996 625
-218.12895643006675 -122.09463204526996 625
-217.39720562694376 -122.09463204526996 625
-216.66545482382077 -122.09463204526996 625
-215.93370402069777 -122.09463204526996 625
-215.20195321757478 -122.09463204526996 625
-214.4702024144518 -122.09463204526996 625
-217.8422298822663 -124.43884898053915 637
-217.09642946372335 -124.43884898053915 637
-216.3506290451804 -124.43884898053915 637
-215.60482862663744 -124.43884898053915 637
-214.8590282080945 -124.43884898053915 637
-214.11322778955153 -124.43884898053915 637
-213.3674273710086 -124.43884898053915 637
-212.62162695246565 -124.43884898053915 637
-211.8758265339227 -124.43884898053915 637
-211.13002611537974 -124.43884898053915 637
-210.38422569683678 -124.43884898053915 637
-213.91676048805493 -126.97841732708076 650
-217.4188544458632 -129.51798567362238 663
-216.6426131939103 -129.51798567362238 663
-215.86637194195745 -129.51798567362238 663
-215.09013069000457 -129.51798567362238 663
-214.31388943805172 -129.51798567362238 663
-125.61038128594049 -76.18705039624845 390
-161.98455205476097 -101.19203103911974 518
-161.3780769891326 -101.19203103911974 518
-158.28864282043858 -99.6292197489403 510
-265.66617728491275 -126.21798233907283 650
-264.90515644966484 -126.21798233907283 650
-264.14413561441694 -126.21798233907283 650
-263.38311477916903 -126.21798233907283 650
-262.62209394392113 -126.21798233907283 650
-261.8610731086732 -126.21798233907283 650
-261.1000522734253 -126.21798233907283 650
-260.3390314381774 -126.21798233907283 650
-259.5780106029295 -126.21798233907283 650
-258.8169897676816 -126.21798233907283 650
-258.0559689324337 -126.21798233907283 650
-257.2949480971858 -126.21798233907283 650
-256.53392726193783 -126.21798233907283 650
-255.77290642668996 -126.21798233907283 650
-255.01188559144205 -126.21798233907283 650
-244.47198534249438 -121.36344455680081 625
-243.7402345393714 -121.36344455680081 625
-243.0084837362484 -121.36344455680081 625
-238.0126624335024 -119.22744793260111 614
-237.29379044451437 -119.22744793260111 614
-232.33660558417327 -117.09145130840142 603
-231.6306124093202 -117.09145130840142 603
-230.92461923446714 -117.09145130840142 603
-230.21862605961408 -117.09145130840142 603
-229.51263288476105 -117.09145130840142 603
-228.80663970990798 -117.09145130840142 603
-228.10064653505492 -117.09145130840142 603
-227.39465336020186 -117.09145130840142 603
-226.6886601853488 -117.09145130840142 603
-225.98266701049573 -117.09145130840142 603
-225.27667383564267 -117.09145130840142 603
-224.5706806607896 -117.09145130840142 603
-223.86468748593654 -117.09145130840142 603
-223.15869431108348 -117.09145130840142 603
-222.45270113623042 -117.09145130840142 603
-221.74670796137735 -117.09145130840142 603
-225.07296663171795 -119.22744793260111 614
-224.35409464272993 -119.22744793260111 614
-223.6352226537419 -119.22744793260111 614
-222.91635066475388 -119.22744793260111 614
-222.19747867576584 -119.22744793260111 614
-221.47860668677782 -119.22744793260111 614
-220.7597346977898 -119.22744793260111 614
-223.98296285505066 -121.36344455680081 625
-223.25121205192767 -121.36344455680081 625
-222.51946124880467 -121.36344455680081 625
-221.78771044568168 -121.36344455680081 625
-221.05595964255872 -121.36344455680081 625
-220.32420883943573 -121.36344455680081 625
-219.59245803631273 -121.36344455680081 625
-218.86070723318974 -121.36344455680081 625
-218.12895643006675 -121.36344455680081 625
-217.39720562694376 -121.36344455680081 625
-216.66545482382077 -121.36344455680081 625
-215.93370402069777 -121.36344455680081 625
-215.20195321757478 -121.36344455680081 625
-214.4702024144518 -121.36344455680081 625
-217.8422298822663 -123.69362269229138 637
-217.09642946372335 -123.69362269229138 637
-216.3506290451804 -123.69362269229138 637
-215.60482862663744 -123.69362269229138 637
-214.8590282080945 -123.69362269229138 637
-214.11322778955153 -123.69362269229138 637
-213.3674273710086 -123.69362269229138 637
-212.62162695246565 -123.69362269229138 637
-211.8758265339227 -123.69362269229138 637
-211.13002611537974 -123.69362269229138 637
-210.38422569683678 -123.69362269229138 637
-213.91676048805493 -126.21798233907283 650
-217.4188544458632 -128.7423419858543 663
-216.6426131939103 -128.7423419858543 663
-215.86637194195745 -128.7423419858543 663
-215.09013069000457 -128.7423419858543 663
