-246.5105043760683 -109.73345887949016 572
-245.84080604105014 -109.73345887949016 572
-245.171107706032 -109.73345887949016 572
-244.5014093710138 -109.73345887949016 572
-243.83171103599565 -109.73345887949016 572
-243.1620127009775 -109.73345887949016 572
-242.49231436595934 -109.73345887949016 572
-241.82261603094116 -109.73345887949016 572
-241.152917695923 -109.73345887949016 572
-240.48321936090485 -109.73345887949016 572
-244.00606509976583 -111.65187599276796 582
-243.3246587518977 -111.65187599276796 582
-242.64325240402957 -111.65187599276796 582
-241.96184605616145 -111.65187599276796 582
-241.2804397082933 -111.65187599276796 582
-240.59903336042518 -111.65187599276796 582
-239.91762701255706 -111.65187599276796 582
-239.23622066468891 -111.65187599276796 582
-238.5548143168208 -111.65187599276796 582
-237.87340796895268 -111.65187599276796 582
-237.19200162108453 -111.65187599276796 582
-240.57435120574593 -113.57029310604575 592
-239.88123684502784 -113.57029310604575 592
-239.18812248430973 -113.57029310604575 592
-238.49500812359165 -113.57029310604575 592
-237.80189376287353 -113.57029310604575 592
-237.10877940215545 -113.57029310604575 592
-236.41566504143734 -113.57029310604575 592
-235.72255068071925 -113.57029310604575 592
-231.05934449027137 -111.65187599276796 582
-230.37793814240325 -111.65187599276796 582
-229.69653179453513 -111.65187599276796 582
-229.015125446667 -111.65187599276796 582
-228.33371909879887 -111.65187599276796 582
-227.65231275093075 -111.65187599276796 582
-226.97090640306263 -111.65187599276796 582
-226.28950005519448 -111.65187599276796 582
-225.60809370732636 -111.65187599276796 582
-177.77710684768178 -88.24718721077879 460
-177.23853825658324 -88.24718721077879 460
-155.18866901055617 -77.5040513764231 404
-154.71566529141745 -77.5040513764231 404
-154.24266157227876 -77.5040513764231 404
-153.76965785314007 -77.5040513764231 404
-187.82634603052145 -94.9616471072511 495
-289.1087843329968 -119.16988209139333 625
-288.37703352987376 -119.16988209139333 625
-287.6452827267508 -119.16988209139333 625
-286.9135319236278 -119.16988209139333 625
-286.1817811205048 -119.16988209139333 625
-279.7072377948079 -117.07249216658481 614
-278.98836580581985 -117.07249216658481 614
-278.2694938168318 -117.07249216658481 614
-263.0854428400734 -110.97099420350547 582
-262.4040364922053 -110.97099420350547 582
-257.2256777363589 -109.06427609004318 572
-261.041223796469 -110.97099420350547 582
-260.3598174486009 -110.97099420350547 582
-259.6784111007328 -110.97099420350547 582
-258.99700475286465 -110.97099420350547 582
-258.31559840499654 -110.97099420350547 582
-257.63419205712836 -110.97099420350547 582
-252.53778939123174 -109.06427609004318 572
-251.8680910562136 -109.06427609004318 572
-251.19839272119543 -109.06427609004318 572
-250.52869438617725 -109.06427609004318 572
-245.49083178453046 -107.15755797658088 562
-249.18929771614094 -109.06427609004318 572
-248.5195993811228 -109.06427609004318 572
-247.8499010461046 -109.06427609004318 572
-247.18020271108645 -109.06427609004318 572
-246.5105043760683 -109.06427609004318 572
-245.84080604105014 -109.06427609004318 572
-245.171107706032 -109.06427609004318 572
-244.5014093710138 -109.06427609004318 572
-243.83171103599565 -109.06427609004318 572
-243.1620127009775 -109.06427609004318 572
-242.49231436595934 -109.06427609004318 572
-241.82261603094116 -109.06427609004318 572
-241.152917695923 -109.06427609004318 572
-244.68747144763395 -110.97099420350547 582
-244.00606509976583 -110.97099420350547 582
-243.3246587518977 -110.97099420350547 582
-242.64325240402957 -110.97099420350547 582
-241.96184605616145 -110.97099420350547 582
-241.2804397082933 -110.97099420350547 582
-240.59903336042518 -110.97099420350547 582
-239.91762701255706 -110.97099420350547 582
-239.23622066468891 -110.97099420350547 582
-238.5548143168208 -110.97099420350547 582
-237.87340796895268 -110.97099420350547 582
-241.267465566464 -112.87771231696777 592
-240.57435120574593 -112.87771231696777 592
-239.88123684502784 -112.87771231696777 592
-239.18812248430973 -112.87771231696777 592
-238.49500812359165 -112.87771231696777 592
-237.80189376287353 -112.87771231696777 592
-237.10877940215545 -112.87771231696777 592
-236.41566504143734 -112.87771231696777 592
-235.72255068071925 -112.87771231696777 592
-235.02943632000117 -112.87771231696777 592
-230.37793814240325 -110.97099420350547 582
-229.69653179453513 -110.97099420350547 582
-229.015125446667 -110.97099420350547 582
-228.33371909879887 -110.97099420350547 582
-231.5638645164107 -112.87771231696777 592
-230.87075015569258 -112.87771231696777 592
-226.28950005519448 -110.97099420350547 582
-178.3156754387803 -87.70903321926549 460
-177.23853825658324 -87.70903321926549 460
-176.69996966548473 -87.70903321926549 460
-156.63046312918252 -77.98477084060781 409
-156.15160540361885 -77.98477084060781 409
-155.67274767805515 -77.98477084060781 409
-187.82634603052145 -94.38254661638352 495
-186.66725275837464 -94.38254661638352 495
-204.13257459476682 -103.53479356100253 543
-289.1087843329968 -118.43869460292419 625
-288.37703352987376 -118.43869460292419 625
-287.6452827267508 -118.43869460292419 625
-286.9135319236278 -118.43869460292419 625
-279.7072377948079 -116.3541735779127 614
-268.99203999518784 -112.18513152788978 592
-268.29892563446975 -112.18513152788978 592
-263.0854428400734 -110.29011241424298 582
-262.4040364922053 -110.29011241424298 582
-261.72263014433713 -110.29011241424298 582
-261.041223796469 -110.29011241424298 582
-260.3598174486009 -110.29011241424298 582
-259.6784111007328 -110.29011241424298 582
-258.99700475286465 -110.29011241424298 582
-258.31559840499654 -110.29011241424298 582
-257.63419205712836 -110.29011241424298 582
-256.95278570926024 -110.29011241424298 582
-251.8680910562136 -108.39509330059622 572
-251.19839272119543 -108.39509330059622 572
-250.52869438617725 -108.39509330059622 572
-249.8589960511591 -108.39509330059622 572
-249.18929771614094 -108.39509330059622 572
-248.5195993811228 -108.39509330059622 572
-247.8499010461046 -108.39509330059622 572
-247.18020271108645 -108.39509330059622 572
-246.5105043760683 -108.39509330059622 572
-245.84080604105014 -108.39509330059622 572
-245.171107706032 -108.39509330059622 572
-244.5014093710138 -108.39509330059622 572
-243.83171103599565 -108.39509330059622 572
-243.1620127009775 -108.39509330059622 572
-246.73169049123834 -110.29011241424298 582
-246.05028414337022 -110.29011241424298 582
-245.36887779550207 -110.29011241424298 582
-244.68747144763395 -110.29011241424298 582
-244.00606509976583 -110.29011241424298 582
-243.3246587518977 -110.29011241424298 582
-242.64325240402957 -110.29011241424298 582
-241.96184605616145 -110.29011241424298 582
-241.2804397082933 -110.29011241424298 582
-240.59903336042518 -110.29011241424298 582
-239.91762701255706 -110.29011241424298 582
-239.23622066468891 -110.29011241424298 582
-238.5548143168208 -110.29011241424298 582
-237.87340796895268 -110.29011241424298 582
-241.267465566464 -112.18513152788978 592
-240.57435120574593 -112.18513152788978 592
-239.88123684502784 -112.18513152788978 592
-239.18812248430973 -112.18513152788978 592
-238.49500812359165 -112.18513152788978 592
-237.80189376287353 -112.18513152788978 592
-237.10877940215545 -112.18513152788978 592
-236.41566504143734 -112.18513152788978 592
-235.72255068071925 -112.18513152788978 592
-235.02943632000117 -112.18513152788978 592
-234.33632195928305 -112.18513152788978 592
-233.64320759856497 -112.18513152788978 592
-232.95009323784686 -112.18513152788978 592
-232.25697887712877 -112.18513152788978 592
-231.5638645164107 -112.18513152788978 592
-235.16057828358552 -114.26965255290123 603
-230.1776357949745 -112.18513152788978 592
-259.67212933449497 -128.10329208252278 676
-258.0892059971793 -128.10329208252278 676
-257.2977443285215 -128.10329208252278 676
-187.82634603052145 -93.80344612551595 495
-187.24679939444803 -93.80344612551595 495
-152.35064669572395 -76.55877219133019 404
-175.56153284669634 -88.49739260730495 467
-175.01476864660285 -88.49739260730495 467
-288.37703352987376 -117.70750711445503 625
-287.6452827267508 -117.70750711445503 625
-285.45003031738185 -117.70750711445503 625
-279.7072377948079 -115.63585498924061 614
-268.99203999518784 -111.4925507388118 592
-268.29892563446975 -111.4925507388118 592
-267.60581127375167 -111.4925507388118 592
-262.4040364922053 -109.60923062498051 582
-261.72263014433713 -109.60923062498051 582
-261.041223796469 -109.60923062498051 582
-260.3598174486009 -109.60923062498051 582
-259.6784111007328 -109.60923062498051 582
-258.99700475286465 -109.60923062498051 582
-258.31559840499654 -109.60923062498051 582
-257.63419205712836 -109.60923062498051 582
-256.95278570926024 -109.60923062498051 582
-256.2713793613921 -109.60923062498051 582
-255.589973013524 -109.60923062498051 582
-250.52869438617725 -107.72591051114924 572
-249.8589960511591 -107.72591051114924 572
-249.18929771614094 -107.72591051114924 572
-248.5195993811228 -107.72591051114924 572
-247.8499010461046 -107.72591051114924 572
-251.50153492631523 -109.60923062498051 582
-250.8201285784471 -109.60923062498051 582
-250.13872223057896 -109.60923062498051 582
-249.45731588271084 -109.60923062498051 582
-248.77590953484273 -109.60923062498051 582
-248.09450318697458 -109.60923062498051 582
-247.41309683910646 -109.60923062498051 582
-246.73169049123834 -109.60923062498051 582
-246.05028414337022 -109.60923062498051 582
-245.36887779550207 -109.60923062498051 582
-244.68747144763395 -109.60923062498051 582
-244.00606509976583 -109.60923062498051 582
-243.3246587518977 -109.60923062498051 582
-242.64325240402957 -109.60923062498051 582
-241.96184605616145 -109.60923062498051 582
-241.2804397082933 -109.60923062498051 582
-240.59903336042518 -109.60923062498051 582
-239.91762701255706 -109.60923062498051 582
-239.23622066468891 -109.60923062498051 582
-242.6536942879002 -111.4925507388118 592
-241.96057992718212 -111.4925507388118 592
-241.267465566464 -111.4925507388118 592
-240.57435120574593 -111.4925507388118 592
-239.88123684502784 -111.4925507388118 592
-239.18812248430973 -111.4925507388118 592
-238.49500812359165 -111.4925507388118 592
-237.80189376287353 -111.4925507388118 592
-237.10877940215545 -111.4925507388118 592
-236.41566504143734 -111.4925507388118 592
-235.72255068071925 -111.4925507388118 592
-239.39653733270387 -113.5642028640262 603
-238.6905441578508 -113.5642028640262 603
-242.32589436743055 -115.63585498924061 614
-241.60702237844254 -115.63585498924061 614
-236.57256463329165 -113.5642028640262 603
-259.67212933449497 -127.31243969499454 676
-258.0892059971793 -127.31243969499454 676
-257.2977443285215 -127.31243969499454 676
-149.88162966071914 -74.39114449633557 395
-149.4191631531454 -74.39114449633557 395
-147.07116883993154 -73.44948443941993 390
-146.6145563387828 -73.44948443941993 390
-146.15794383763406 -73.44948443941993 390
-206.22342281471765 -103.95927028348667 552
-275.40218925021 -112.85875317515115 603
-274.6961960753569 -112.85875317515115 603
-268.99203999518784 -110.79996994973382 592
-268.29892563446975 -110.79996994973382 592
-267.60581127375167 -110.79996994973382 592
-266.9126969130336 -110.79996994973382 592
-266.2195825523155 -110.79996994973382 592
-261.041223796469 -108.92834883571803 582
-260.3598174486009 -108.92834883571803 582
-259.6784111007328 -108.92834883571803 582
-258.99700475286465 -108.92834883571803 582
-258.31559840499654 -108.92834883571803 582
-257.63419205712836 -108.92834883571803 582
-256.95278570926024 -108.92834883571803 582
-256.2713793613921 -108.92834883571803 582
-255.589973013524 -108.92834883571803 582
-259.28843894513454 -110.79996994973382 592
-258.5953245844164 -110.79996994973382 592
-257.9022102236983 -110.79996994973382 592
-252.8643476220515 -108.92834883571803 582
-252.18294127418335 -108.92834883571803 582
-251.50153492631523 -108.92834883571803 582
-250.8201285784471 -108.92834883571803 582
-250.13872223057896 -108.92834883571803 582
-249.45731588271084 -108.92834883571803 582
-248.77590953484273 -108.92834883571803 582
-248.09450318697458 -108.92834883571803 582
-247.41309683910646 -108.92834883571803 582
-246.73169049123834 -108.92834883571803 582
-246.05028414337022 -108.92834883571803 582
-245.36887779550207 -108.92834883571803 582
-244.68747144763395 -108.92834883571803 582
-244.00606509976583 -108.92834883571803 582
-243.3246587518977 -108.92834883571803 582
-242.64325240402957 -108.92834883571803 582
-241.96184605616145 -108.92834883571803 582
-241.2804397082933 -108.92834883571803 582
-240.59903336042518 -108.92834883571803 582
-239.91762701255706 -108.92834883571803 582
-243.34680864861832 -110.79996994973382 592
-242.6536942879002 -110.79996994973382 592
-241.96057992718212 -110.79996994973382 592
-241.267465566464 -110.79996994973382 592
-240.57435120574593 -110.79996994973382 592
-239.88123684502784 -110.79996994973382 592
-239.18812248430973 -110.79996994973382 592
-238.49500812359165 -110.79996994973382 592
-237.80189376287353 -110.79996994973382 592
-241.51451685726306 -112.85875317515115 603
-240.80852368241 -112.85875317515115 603
-240.10253050755693 -112.85875317515115 603
-243.7636383454066 -114.91753640056851 614
-243.0447663564186 -114.91753640056851 614
-259.67212933449497 -126.5215873074663 676
-258.8806676658371 -126.5215873074663 676
-258.0892059971793 -126.5215873074663 676
-257.2977443285215 -126.5215873074663 676
-187.82634603052145 -92.64524514378081 495
-149.4191631531454 -73.92903400362306 395
-148.9566966455717 -73.92903400362306 395
-148.49423013799796 -73.92903400362306 395
-146.15794383763406 -72.99322344661518 390
-276.10818242506303 -112.15330348627612 603
-270.37826871662406 -110.10738916065583 592
-269.685154355906 -110.10738916065583 592
-268.99203999518784 -110.10738916065583 592
-268.29892563446975 -110.10738916065583 592
-267.60581127375167 -110.10738916065583 592
-266.9126969130336 -110.10738916065583 592
-266.2195825523155 -110.10738916065583 592
-265.52646819159736 -110.10738916065583 592
-264.8333538308793 -110.10738916065583 592
-264.1402394701612 -110.10738916065583 592
-263.4471251094431 -110.10738916065583 592
-262.754010748725 -110.10738916065583 592
-257.63419205712836 -108.24746704645555 582
-261.3677820272888 -110.10738916065583 592
-260.6746676665707 -110.10738916065583 592
-259.98155330585263 -110.10738916065583 592
-259.28843894513454 -110.10738916065583 592
-258.5953245844164 -110.10738916065583 592
-257.9022102236983 -110.10738916065583 592
-257.20909586298023 -110.10738916065583 592
-256.51598150226215 -110.10738916065583 592
-251.50153492631523 -108.24746704645555 582
-250.8201285784471 -108.24746704645555 582
-250.13872223057896 -108.24746704645555 582
-249.45731588271084 -108.24746704645555 582
-248.77590953484273 -108.24746704645555 582
-248.09450318697458 -108.24746704645555 582
-247.41309683910646 -108.24746704645555 582
-246.73169049123834 -108.24746704645555 582
-246.05028414337022 -108.24746704645555 582
-245.36887779550207 -108.24746704645555 582
-248.89172353436308 -110.10738916065583 592
-248.19860917364497 -110.10738916065583 592
-247.50549481292688 -110.10738916065583 592
-246.8123804522088 -110.10738916065583 592
-246.1192660914907 -110.10738916065583 592
-245.4261517307726 -110.10738916065583 592
-244.7330373700545 -110.10738916065583 592
-244.0399230093364 -110.10738916065583 592
-243.34680864861832 -110.10738916065583 592
-242.6536942879002 -110.10738916065583 592
-241.96057992718212 -110.10738916065583 592
-241.267465566464 -110.10738916065583 592
-240.57435120574593 -110.10738916065583 592
-239.88123684502784 -110.10738916065583 592
-243.63249638182225 -112.15330348627612 603
-242.9265032069692 -112.15330348627612 603
-242.22051003211612 -112.15330348627612 603
-245.92025431237067 -114.1992178118964 614
-245.20138232338266 -114.1992178118964 614
-244.48251033439465 -114.1992178118964 614
-243.7636383454066 -114.1992178118964 614
-259.67212933449497 -125.73073491993806 676
-258.8806676658371 -125.73073491993806 676
-258.0892059971793 -125.73073491993806 676
-257.2977443285215 -125.73073491993806 676
-256.50628265986364 -125.73073491993806 676
-148.9566966455717 -73.46692351091056 395
-148.49423013799796 -73.46692351091056 395
-148.03176363042422 -73.46692351091056 395
-276.10818242506303 -111.44785379740107 603
-270.37826871662406 -109.41480837157785 592
-269.685154355906 -109.41480837157785 592
-268.99203999518784 -109.41480837157785 592
-268.29892563446975 -109.41480837157785 592
-267.60581127375167 -109.41480837157785 592
-266.9126969130336 -109.41480837157785 592
-266.2195825523155 -109.41480837157785 592
-265.52646819159736 -109.41480837157785 592
-264.8333538308793 -109.41480837157785 592
-264.1402394701612 -109.41480837157785 592
-263.4471251094431 -109.41480837157785 592
-262.754010748725 -109.41480837157785 592
-262.0608963880069 -109.41480837157785 592
-261.3677820272888 -109.41480837157785 592
-260.6746676665707 -109.41480837157785 592
-259.98155330585263 -109.41480837157785 592
-259.28843894513454 -109.41480837157785 592
-258.5953245844164 -109.41480837157785 592
-257.9022102236983 -109.41480837157785 592
-257.20909586298023 -109.41480837157785 592
-256.51598150226215 -109.41480837157785 592
-255.82286714154404 -109.41480837157785 592
-255.12975278082595 -109.41480837157785 592
-254.43663842010784 -109.41480837157785 592
-249.45731588271084 -107.56658525719307 582
-248.77590953484273 -107.56658525719307 582
-248.09450318697458 -107.56658525719307 582
-247.41309683910646 -107.56658525719307 582
-246.73169049123834 -107.56658525719307 582
-246.05028414337022 -107.56658525719307 582
-249.58483789508117 -109.41480837157785 592
-248.89172353436308 -109.41480837157785 592
-248.19860917364497 -109.41480837157785 592
-247.50549481292688 -109.41480837157785 592
-246.8123804522088 -109.41480837157785 592
-246.1192660914907 -109.41480837157785 592
-245.4261517307726 -109.41480837157785 592
-244.7330373700545 -109.41480837157785 592
-244.0399230093364 -109.41480837157785 592
-243.34680864861832 -109.41480837157785 592
-242.6536942879002 -109.41480837157785 592
-246.4564690812345 -111.44785379740107 603
-245.75047590638144 -111.44785379740107 603
-245.04448273152838 -111.44785379740107 603
-244.3384895566753 -111.44785379740107 603
-248.07687027933477 -113.48089922322431 614
-247.35799829034673 -113.48089922322431 614
-246.63912630135871 -113.48089922322431 614
-245.92025431237067 -113.48089922322431 614
-249.59424096435532 -115.51394464904756 625
-258.0892059971793 -124.93988253240983 676
-286.9135319236278 -114.7827571605784 625
-276.10818242506303 -110.74240410852603 603
-275.40218925021 -110.74240410852603 603
-274.6961960753569 -110.74240410852603 603
-268.99203999518784 -108.72222758249985 592
-268.29892563446975 -108.72222758249985 592
-267.60581127375167 -108.72222758249985 592
-266.9126969130336 -108.72222758249985 592
-266.2195825523155 -108.72222758249985 592
-265.52646819159736 -108.72222758249985 592
-264.8333538308793 -108.72222758249985 592
-264.1402394701612 -108.72222758249985 592
-263.4471251094431 -108.72222758249985 592
-262.754010748725 -108.72222758249985 592
-262.0608963880069 -108.72222758249985 592
-261.3677820272888 -108.72222758249985 592
-260.6746676665707 -108.72222758249985 592
-259.98155330585263 -108.72222758249985 592
-259.28843894513454 -108.72222758249985 592
-258.5953245844164 -108.72222758249985 592
-257.9022102236983 -108.72222758249985 592
-257.20909586298023 -108.72222758249985 592
-256.51598150226215 -108.72222758249985 592
-255.82286714154404 -108.72222758249985 592
-255.12975278082595 -108.72222758249985 592
-254.43663842010784 -108.72222758249985 592
-253.74352405938976 -108.72222758249985 592
-253.05040969867164 -108.72222758249985 592
-248.09450318697458 -106.8857034679306 582
-251.66418097723547 -108.72222758249985 592
-250.97106661651736 -108.72222758249985 592
-250.27795225579928 -108.72222758249985 592
-249.58483789508117 -108.72222758249985 592
-248.89172353436308 -108.72222758249985 592
-248.19860917364497 -108.72222758249985 592
-247.50549481292688 -108.72222758249985 592
-246.8123804522088 -108.72222758249985 592
-246.1192660914907 -108.72222758249985 592
-245.4261517307726 -108.72222758249985 592
-244.7330373700545 -108.72222758249985 592
-248.57444860579366 -110.74240410852603 603
-247.8684554309406 -110.74240410852603 603
-247.16246225608754 -110.74240410852603 603
-246.4564690812345 -110.74240410852603 603
-245.75047590638144 -110.74240410852603 603
-249.5146142573108 -112.76258063455221 614
-248.79574226832278 -112.76258063455221 614
-248.07687027933477 -112.76258063455221 614
-247.35799829034673 -112.76258063455221 614
-246.63912630135871 -112.76258063455221 614
-250.3259917674783 -114.7827571605784 625
-295.40547341073324 -116.24135980981373 637
-288.37703352987376 -114.05156967210924 625
-287.6452827267508 -114.05156967210924 625
-286.9135319236278 -114.05156967210924 625
-281.1449817727839 -112.04426204588012 614
-275.40218925021 -110.03695441965098 603
-274.6961960753569 -110.03695441965098 603
-273.99020290050385 -110.03695441965098 603
-273.2842097256508 -110.03695441965098 603
-272.5782165507977 -110.03695441965098 603
-271.87222337594466 -110.03695441965098 603
-271.1662302010916 -110.03695441965098 603
-265.52646819159736 -108.02964679342188 592
-264.8333538308793 -108.02964679342188 592
-264.1402394701612 -108.02964679342188 592
-263.4471251094431 -108.02964679342188 592
-262.754010748725 -108.02964679342188 592
-262.0608963880069 -108.02964679342188 592
-261.3677820272888 -108.02964679342188 592
-260.6746676665707 -108.02964679342188 592
-259.98155330585263 -108.02964679342188 592
-259.28843894513454 -108.02964679342188 592
-258.5953245844164 -108.02964679342188 592
-257.9022102236983 -108.02964679342188 592
-257.20909586298023 -108.02964679342188 592
-256.51598150226215 -108.02964679342188 592
-255.82286714154404 -108.02964679342188 592
-255.12975278082595 -108.02964679342188 592
-254.43663842010784 -108.02964679342188 592
-253.74352405938976 -108.02964679342188 592
-253.05040969867164 -108.02964679342188 592
-252.35729533795356 -108.02964679342188 592
-251.66418097723547 -108.02964679342188 592
-250.97106661651736 -108.02964679342188 592
-250.27795225579928 -108.02964679342188 592
-249.58483789508117 -108.02964679342188 592
-248.89172353436308 -108.02964679342188 592
-248.19860917364497 -108.02964679342188 592
-247.50549481292688 -108.02964679342188 592
-246.8123804522088 -108.02964679342188 592
-246.1192660914907 -108.02964679342188 592
-249.9864349554998 -110.03695441965098 603
-249.28044178064673 -110.03695441965098 603
-248.57444860579366 -110.03695441965098 603
-252.3901022132629 -112.04426204588012 614
-251.6712302242749 -112.04426204588012 614
-250.95235823528685 -112.04426204588012 614
-250.23348624629884 -112.04426204588012 614
-249.5146142573108 -112.04426204588012 614
-248.79574226832278 -112.04426204588012 614
-248.07687027933477 -112.04426204588012 614
-247.35799829034673 -112.04426204588012 614
-251.0577425706013 -114.05156967210924 625
-250.3259917674783 -114.05156967210924 625
-296.89707424781915 -115.49613352156597 637
-290.57228593924276 -113.32038218364008 625
-289.84053513611974 -113.32038218364008 625
-289.1087843329968 -113.32038218364008 625
-288.37703352987376 -113.32038218364008 625
-287.6452827267508 -113.32038218364008 625
-286.9135319236278 -113.32038218364008 625
-281.1449817727839 -111.32594345720801 614
-280.4261097837959 -111.32594345720801 614
-274.6961960753569 -109.33150473077593 603
-273.99020290050385 -109.33150473077593 603
-273.2842097256508 -109.33150473077593 603
-272.5782165507977 -109.33150473077593 603
-271.87222337594466 -109.33150473077593 603
-271.1662302010916 -109.33150473077593 603
-275.3940058608797 -111.32594345720801 614
-269.75424385138547 -109.33150473077593 603
-264.1402394701612 -107.33706600434388 592
-263.4471251094431 -107.33706600434388 592
-262.754010748725 -107.33706600434388 592
-262.0608963880069 -107.33706600434388 592
-261.3677820272888 -107.33706600434388 592
-260.6746676665707 -107.33706600434388 592
-259.98155330585263 -107.33706600434388 592
-259.28843894513454 -107.33706600434388 592
-258.5953245844164 -107.33706600434388 592
-257.9022102236983 -107.33706600434388 592
-257.20909586298023 -107.33706600434388 592
-256.51598150226215 -107.33706600434388 592
-255.82286714154404 -107.33706600434388 592
-255.12975278082595 -107.33706600434388 592
-254.43663842010784 -107.33706600434388 592
-253.74352405938976 -107.33706600434388 592
-257.75235987888345 -109.33150473077593 603
-257.0463667040304 -109.33150473077593 603
-251.66418097723547 -107.33706600434388 592
-250.97106661651736 -107.33706600434388 592
-250.27795225579928 -107.33706600434388 592
-249.58483789508117 -107.33706600434388 592
-248.89172353436308 -107.33706600434388 592
-248.19860917364497 -107.33706600434388 592
-252.10441448005898 -109.33150473077593 603
-251.39842130520591 -109.33150473077593 603
-255.26559016921502 -111.32594345720801 614
-254.54671818022697 -111.32594345720801 614
-253.82784619123896 -111.32594345720801 614
-253.10897420225095 -111.32594345720801 614
-252.3901022132629 -111.32594345720801 614
-251.6712302242749 -111.32594345720801 614
-250.95235823528685 -111.32594345720801 614
-250.23348624629884 -111.32594345720801 614
-249.5146142573108 -111.32594345720801 614
-248.79574226832278 -111.32594345720801 614
-248.07687027933477 -111.32594345720801 614
-247.35799829034673 -111.32594345720801 614
-251.0577425706013 -113.32038218364008 625
-237.98455098299777 -109.33150473077593 603
-209.89439814064846 -97.00224714919591 535
-209.26801945317519 -97.00224714919591 535
-297.6428746663621 -114.7509072333182 637
-291.3040367423657 -112.58919469517092 625
-290.57228593924276 -112.58919469517092 625
-289.84053513611974 -112.58919469517092 625
-289.1087843329968 -112.58919469517092 625
-288.37703352987376 -112.58919469517092 625
-287.6452827267508 -112.58919469517092 625
-281.86385376177196 -110.60762486853591 614
-281.1449817727839 -110.60762486853591 614
-280.4261097837959 -110.60762486853591 614
-279.7072377948079 -110.60762486853591 614
-273.99020290050385 -108.6260550419009 603
-273.2842097256508 -108.6260550419009 603
-272.5782165507977 -108.6260550419009 603
-276.8317498388558 -110.60762486853591 614
-276.11287784986774 -110.60762486853591 614
-275.3940058608797 -110.60762486853591 614
-274.6751338718917 -110.60762486853591 614
-269.0482506765324 -108.6260550419009 603
-268.3422575016794 -108.6260550419009 603
-267.63626432682634 -108.6260550419009 603
-262.0608963880069 -106.6444852152659 592
-261.3677820272888 -106.6444852152659 592
-260.6746676665707 -106.6444852152659 592
-259.98155330585263 -106.6444852152659 592
-259.28843894513454 -106.6444852152659 592
-258.5953245844164 -106.6444852152659 592
-257.9022102236983 -106.6444852152659 592
-257.20909586298023 -106.6444852152659 592
-256.51598150226215 -106.6444852152659 592
-255.82286714154404 -106.6444852152659 592
-255.12975278082595 -106.6444852152659 592
-254.43663842010784 -106.6444852152659 592
-258.4583530537365 -108.6260550419009 603
-262.4543100590953 -110.60762486853591 614
-261.73543807010725 -110.60762486853591 614
-261.0165660811192 -110.60762486853591 614
-260.29769409213117 -110.60762486853591 614
-254.92838717947123 -108.6260550419009 603
-254.22239400461817 -108.6260550419009 603
-253.5164008297651 -108.6260550419009 603
-252.81040765491204 -108.6260550419009 603
-256.7033341471911 -110.60762486853591 614
-255.98446215820303 -110.60762486853591 614
-255.26559016921502 -110.60762486853591 614
-254.54671818022697 -110.60762486853591 614
-253.82784619123896 -110.60762486853591 614
-253.10897420225095 -110.60762486853591 614
-252.3901022132629 -110.60762486853591 614
-251.6712302242749 -110.60762486853591 614
-250.95235823528685 -110.60762486853591 614
-250.23348624629884 -110.60762486853591 614
-249.5146142573108 -110.60762486853591 614
-248.79574226832278 -110.60762486853591 614
-248.07687027933477 -110.60762486853591 614
-247.35799829034673 -110.60762486853591 614
-251.0577425706013 -112.58919469517092 625
-250.3259917674783 -112.58919469517092 625
-249.59424096435532 -112.58919469517092 625
-237.98455098299777 -108.6260550419009 603
-317.4488311465162 -120.98562059476862 676
-304.4782398825562 -116.33232749496983 650
-297.6428746663621 -114.00568094507044 637
-291.3040367423657 -111.85800720670177 625
-290.57228593924276 -111.85800720670177 625
-289.84053513611974 -111.85800720670177 625
-289.1087843329968 -111.85800720670177 625
-288.37703352987376 -111.85800720670177 625
-287.6452827267508 -111.85800720670177 625
-281.86385376177196 -109.88930627986382 614
-281.1449817727839 -109.88930627986382 614
-280.4261097837959 -109.88930627986382 614
-279.7072377948079 -109.88930627986382 614
-273.99020290050385 -107.92060535302585 603
-273.2842097256508 -107.92060535302585 603
-272.5782165507977 -107.92060535302585 603
-276.8317498388558 -109.88930627986382 614
-276.11287784986774 -109.88930627986382 614
-275.3940058608797 -109.88930627986382 614
-274.6751338718917 -109.88930627986382 614
-273.9562618829037 -109.88930627986382 614
-273.23738989391563 -109.88930627986382 614
-259.98155330585263 -105.95190442618791 592
-259.28843894513454 -105.95190442618791 592
-263.40030527770796 -107.92060535302585 603
-257.9022102236983 -105.95190442618791 592
-257.20909586298023 -105.95190442618791 592
-256.51598150226215 -105.95190442618791 592
-255.82286714154404 -105.95190442618791 592
-259.87033940344264 -107.92060535302585 603
-259.1643462285896 -107.92060535302585 603
-263.1731820480833 -109.88930627986382 614
-262.4543100590953 -109.88930627986382 614
-261.73543807010725 -109.88930627986382 614
-261.0165660811192 -109.88930627986382 614
-260.29769409213117 -109.88930627986382 614
-259.5788221031432 -109.88930627986382 614
-258.85995011415514 -109.88930627986382 614
-258.1410781251671 -109.88930627986382 614
-257.4222061361791 -109.88930627986382 614
-256.7033341471911 -109.88930627986382 614
-255.98446215820303 -109.88930627986382 614
-255.26559016921502 -109.88930627986382 614
-254.54671818022697 -109.88930627986382 614
-253.82784619123896 -109.88930627986382 614
-253.10897420225095 -109.88930627986382 614
-252.3901022132629 -109.88930627986382 614
-251.6712302242749 -109.88930627986382 614
-250.95235823528685 -109.88930627986382 614
-250.23348624629884 -109.88930627986382 614
-249.5146142573108 -109.88930627986382 614
-248.79574226832278 -109.88930627986382 614
-248.07687027933477 -109.88930627986382 614
-247.35799829034673 -109.88930627986382 614
-242.22051003211612 -107.92060535302585 603
-245.92025431237067 -109.88930627986382 614
-249.59424096435532 -111.85800720670177 625
-318.2402928151741 -120.19476820724039 676
-305.2392607178041 -115.57189250696192 650
-304.4782398825562 -115.57189250696192 650
-297.6428746663621 -113.26045465682267 637
-296.89707424781915 -113.26045465682267 637
-290.57228593924276 -111.12681971823261 625
-289.84053513611974 -111.12681971823261 625
-289.1087843329968 -111.12681971823261 625
-288.37703352987376 -111.12681971823261 625
-287.6452827267508 -111.12681971823261 625
-281.86385376177196 -109.17098769119171 614
-281.1449817727839 -109.17098769119171 614
-280.4261097837959 -109.17098769119171 614
-279.7072377948079 -109.17098769119171 614
-273.99020290050385 -107.21515566415081 603
-273.2842097256508 -107.21515566415081 603
-272.5782165507977 -107.21515566415081 603
-276.8317498388558 -109.17098769119171 614
-276.11287784986774 -109.17098769119171 614
-275.3940058608797 -109.17098769119171 614
-274.6751338718917 -109.17098769119171 614
-273.9562618829037 -109.17098769119171 614
-273.23738989391563 -109.17098769119171 614
-272.5185179049276 -109.17098769119171 614
-271.7996459159396 -109.17098769119171 614
-271.08077392695157 -109.17098769119171 614
-270.3619019379635 -109.17098769119171 614
-269.64302994897554 -109.17098769119171 614
-264.106298452561 -107.21515566415081 603
-263.40030527770796 -107.21515566415081 603
-262.6943121028549 -107.21515566415081 603
-261.98831892800183 -107.21515566415081 603
-266.0486700040354 -109.17098769119171 614
-265.32979801504734 -109.17098769119171 614
-264.61092602605936 -109.17098769119171 614
-263.8920540370713 -109.17098769119171 614
-263.1731820480833 -109.17098769119171 614
-262.4543100590953 -109.17098769119171 614
-261.73543807010725 -109.17098769119171 614
-261.0165660811192 -109.17098769119171 614
-260.29769409213117 -109.17098769119171 614
-259.5788221031432 -109.17098769119171 614
-258.85995011415514 -109.17098769119171 614
-258.1410781251671 -109.17098769119171 614
-257.4222061361791 -109.17098769119171 614
-256.7033341471911 -109.17098769119171 614
-255.98446215820303 -109.17098769119171 614
-255.26559016921502 -109.17098769119171 614
-254.54671818022697 -109.17098769119171 614
-253.82784619123896 -109.17098769119171 614
-253.10897420225095 -109.17098769119171 614
-252.3901022132629 -109.17098769119171 614
-251.6712302242749 -109.17098769119171 614
-250.95235823528685 -109.17098769119171 614
-250.23348624629884 -109.17098769119171 614
-249.5146142573108 -109.17098769119171 614
-248.79574226832278 -109.17098769119171 614
-248.07687027933477 -109.17098769119171 614
-169.20253954714272 -74.67722285065231 420
-146.21602927311818 -64.72025980389867 364
-145.78985760537935 -64.72025980389867 364
-236.41566504143734 -105.25932363710993 592
-240.10253050755693 -107.21515566415081 603
-319.0317544838319 -119.40391581971214 676
-312.12028718411307 -117.10768666933306 663
-305.2392607178041 -114.81145751895399 650
-304.4782398825562 -114.81145751895399 650
-297.6428746663621 -112.51522836857491 637
-296.89707424781915 -112.51522836857491 637
-296.1512738292762 -112.51522836857491 637
-289.84053513611974 -110.39563222976345 625
-289.1087843329968 -110.39563222976345 625
-288.37703352987376 -110.39563222976345 625
-282.58272575075995 -108.45266910251961 614
-281.86385376177196 -108.45266910251961 614
-281.1449817727839 -108.45266910251961 614
-280.4261097837959 -108.45266910251961 614
-274.6961960753569 -106.50970597527576 603
-273.99020290050385 -106.50970597527576 603
-273.2842097256508 -106.50970597527576 603
-272.5782165507977 -106.50970597527576 603
-276.8317498388558 -108.45266910251961 614
-276.11287784986774 -108.45266910251961 614
-275.3940058608797 -108.45266910251961 614
-274.6751338718917 -108.45266910251961 614
-273.9562618829037 -108.45266910251961 614
-273.23738989391563 -108.45266910251961 614
-267.63626432682634 -106.50970597527576 603
-271.7996459159396 -108.45266910251961 614
-271.08077392695157 -108.45266910251961 614
-270.3619019379635 -108.45266910251961 614
-264.8122916274141 -106.50970597527576 603
-264.106298452561 -106.50970597527576 603
-263.40030527770796 -106.50970597527576 603
-262.6943121028549 -106.50970597527576 603
-261.98831892800183 -106.50970597527576 603
-266.0486700040354 -108.45266910251961 614
-260.5763325782957 -106.50970597527576 603
-259.87033940344264 -106.50970597527576 603
-263.8920540370713 -108.45266910251961 614
-263.1731820480833 -108.45266910251961 614
-262.4543100590953 -108.45266910251961 614
-261.73543807010725 -108.45266910251961 614
-261.0165660811192 -108.45266910251961 614
-260.29769409213117 -108.45266910251961 614
-259.5788221031432 -108.45266910251961 614
-258.85995011415514 -108.45266910251961 614
-258.1410781251671 -108.45266910251961 614
-257.4222061361791 -108.45266910251961 614
-256.7033341471911 -108.45266910251961 614
-255.98446215820303 -108.45266910251961 614
-255.26559016921502 -108.45266910251961 614
-254.54671818022697 -108.45266910251961 614
-253.82784619123896 -108.45266910251961 614
-253.10897420225095 -108.45266910251961 614
-252.3901022132629 -108.45266910251961 614
-251.6712302242749 -108.45266910251961 614
-250.95235823528685 -108.45266910251961 614
-250.23348624629884 -108.45266910251961 614
-253.98474578309325 -110.39563222976345 625
-248.79574226832278 -108.45266910251961 614
-248.07687027933477 -108.45266910251961 614
-146.642200940857 -64.29441621061423 364
-146.21602927311818 -64.29441621061423 364
-145.78985760537935 -64.29441621061423 364
-145.36368593764053 -64.29441621061423 364
-306.7613023882999 -114.05102253094607 650
-306.000281553052 -114.05102253094607 650
-305.2392607178041 -114.05102253094607 650
-304.4782398825562 -114.05102253094607 650
-297.6428746663621 -111.77000208032715 637
-296.89707424781915 -111.77000208032715 637
-296.1512738292762 -111.77000208032715 637
-289.84053513611974 -109.66444474129429 625
-289.1087843329968 -109.66444474129429 625
-283.301597739748 -107.73435051384752 614
-282.58272575075995 -107.73435051384752 614
-281.86385376177196 -107.73435051384752 614
-281.1449817727839 -107.73435051384752 614
-280.4261097837959 -107.73435051384752 614
-274.6961960753569 -105.80425628640073 603
-273.99020290050385 -105.80425628640073 603
-273.2842097256508 -105.80425628640073 603
-272.5782165507977 -105.80425628640073 603
-271.87222337594466 -105.80425628640073 603
-276.11287784986774 -107.73435051384752 614
-275.3940058608797 -107.73435051384752 614
-274.6751338718917 -107.73435051384752 614
-269.0482506765324 -105.80425628640073 603
-268.3422575016794 -105.80425628640073 603
-267.63626432682634 -105.80425628640073 603
-266.9302711519733 -105.80425628640073 603
-266.2242779771202 -105.80425628640073 603
-265.51828480226715 -105.80425628640073 603
-264.8122916274141 -105.80425628640073 603
-264.106298452561 -105.80425628640073 603
-263.40030527770796 -105.80425628640073 603
-262.6943121028549 -105.80425628640073 603
-266.7675419930234 -107.73435051384752 614
-266.0486700040354 -107.73435051384752 614
-265.32979801504734 -107.73435051384752 614
-264.61092602605936 -107.73435051384752 614
-263.8920540370713 -107.73435051384752 614
-263.1731820480833 -107.73435051384752 614
-262.4543100590953 -107.73435051384752 614
-261.73543807010725 -107.73435051384752 614
-261.0165660811192 -107.73435051384752 614
-260.29769409213117 -107.73435051384752 614
-259.5788221031432 -107.73435051384752 614
-258.85995011415514 -107.73435051384752 614
-262.7657554205691 -109.66444474129429 625
-262.03400461744616 -109.66444474129429 625
-261.30225381432314 -109.66444474129429 625
-260.5705030112002 -109.66444474129429 625
-255.26559016921502 -107.73435051384752 614
-254.54671818022697 -107.73435051384752 614
-253.82784619123896 -107.73435051384752 614
-253.10897420225095 -107.73435051384752 614
-252.3901022132629 -107.73435051384752 614
-251.6712302242749 -107.73435051384752 614
-250.95235823528685 -107.73435051384752 614
-250.23348624629884 -107.73435051384752 614
-253.98474578309325 -109.66444474129429 625
-253.25299497997025 -109.66444474129429 625
-252.52124417684726 -109.66444474129429 625
-146.642200940857 -63.8685726173298 364
-146.21602927311818 -63.8685726173298 364
-145.78985760537935 -63.8685726173298 364
-145.36368593764053 -63.8685726173298 364
-306.7613023882999 -113.29058754293814 650
-306.000281553052 -113.29058754293814 650
-305.2392607178041 -113.29058754293814 650
-304.4782398825562 -113.29058754293814 650
-297.6428746663621 -111.02477579207938 637
-296.89707424781915 -111.02477579207938 637
-290.57228593924276 -108.93325725282514 625
-289.84053513611974 -108.93325725282514 625
-289.1087843329968 -108.93325725282514 625
-283.301597739748 -107.01603192517541 614
-282.58272575075995 -107.01603192517541 614
-281.86385376177196 -107.01603192517541 614
-281.1449817727839 -107.01603192517541 614
-280.4261097837959 -107.01603192517541 614
-274.6961960753569 -105.09880659752568 603
-273.99020290050385 -105.09880659752568 603
-273.2842097256508 -105.09880659752568 603
-272.5782165507977 -105.09880659752568 603
-276.8317498388558 -107.01603192517541 614
-276.11287784986774 -107.01603192517541 614
-275.3940058608797 -107.01603192517541 614
-274.6751338718917 -107.01603192517541 614
-269.0482506765324 -105.09880659752568 603
-268.3422575016794 -105.09880659752568 603
-267.63626432682634 -105.09880659752568 603
-266.9302711519733 -105.09880659752568 603
-266.2242779771202 -105.09880659752568 603
-265.51828480226715 -105.09880659752568 603
-264.8122916274141 -105.09880659752568 603
-264.106298452561 -105.09880659752568 603
-263.40030527770796 -105.09880659752568 603
-262.6943121028549 -105.09880659752568 603
-266.7675419930234 -107.01603192517541 614
-266.0486700040354 -107.01603192517541 614
-265.32979801504734 -107.01603192517541 614
-264.61092602605936 -107.01603192517541 614
-263.8920540370713 -107.01603192517541 614
-263.1731820480833 -107.01603192517541 614
-262.4543100590953 -107.01603192517541 614
-266.42450943618405 -108.93325725282514 625
-265.6927586330611 -108.93325725282514 625
-264.9610078299381 -108.93325725282514 625
-264.2292570268151 -108.93325725282514 625
-263.49750622369214 -108.93325725282514 625
-262.7657554205691 -108.93325725282514 625
-262.03400461744616 -108.93325725282514 625
-261.30225381432314 -108.93325725282514 625
-260.5705030112002 -108.93325725282514 625
-259.83875220807715 -108.93325725282514 625
-254.54671818022697 -107.01603192517541 614
-253.82784619123896 -107.01603192517541 614
-253.10897420225095 -107.01603192517541 614
-252.3901022132629 -107.01603192517541 614
-251.6712302242749 -107.01603192517541 614
-250.95235823528685 -107.01603192517541 614
-250.23348624629884 -107.01603192517541 614
-253.98474578309325 -108.93325725282514 625
-253.25299497997025 -108.93325725282514 625
-252.52124417684726 -108.93325725282514 625
-146.642200940857 -63.442729024045356 364
-146.21602927311818 -63.442729024045356 364
-145.78985760537935 -63.442729024045356 364
-146.9610890798124 -64.13990187046343 368
-307.52232322354786 -112.53015255493021 650
-306.7613023882999 -112.53015255493021 650
-306.000281553052 -112.53015255493021 650
-305.2392607178041 -112.53015255493021 650
-304.4782398825562 -112.53015255493021 650
-297.6428746663621 -110.27954950383162 637
-296.89707424781915 -110.27954950383162 637
-290.57228593924276 -108.20206976435598 625
-289.84053513611974 -108.20206976435598 625
-289.1087843329968 -108.20206976435598 625
-283.301597739748 -106.2977133365033 614
-282.58272575075995 -106.2977133365033 614
-281.86385376177196 -106.2977133365033 614
-281.1449817727839 -106.2977133365033 614
-280.4261097837959 -106.2977133365033 614
-279.7072377948079 -106.2977133365033 614
-273.99020290050385 -104.39335690865065 603
-273.2842097256508 -104.39335690865065 603
-272.5782165507977 -104.39335690865065 603
-276.8317498388558 -106.2977133365033 614
-276.11287784986774 -106.2977133365033 614
-275.3940058608797 -106.2977133365033 614
-274.6751338718917 -106.2977133365033 614
-273.9562618829037 -106.2977133365033 614
-268.3422575016794 -104.39335690865065 603
-267.63626432682634 -104.39335690865065 603
-266.9302711519733 -104.39335690865065 603
-271.08077392695157 -106.2977133365033 614
-270.3619019379635 -106.2977133365033 614
-269.64302994897554 -106.2977133365033 614
-268.9241579599875 -106.2977133365033 614
-268.20528597099946 -106.2977133365033 614
-267.48641398201147 -106.2977133365033 614
-266.7675419930234 -106.2977133365033 614
-266.0486700040354 -106.2977133365033 614
-265.32979801504734 -106.2977133365033 614
-264.61092602605936 -106.2977133365033 614
-263.8920540370713 -106.2977133365033 614
-263.1731820480833 -106.2977133365033 614
-262.4543100590953 -106.2977133365033 614
-266.42450943618405 -108.20206976435598 625
-265.6927586330611 -108.20206976435598 625
-264.9610078299381 -108.20206976435598 625
-264.2292570268151 -108.20206976435598 625
-263.49750622369214 -108.20206976435598 625
-262.7657554205691 -108.20206976435598 625
-262.03400461744616 -108.20206976435598 625
-261.30225381432314 -108.20206976435598 625
-260.5705030112002 -108.20206976435598 625
-259.83875220807715 -108.20206976435598 625
-259.1070014049542 -108.20206976435598 625
-253.82784619123896 -106.2977133365033 614
-253.10897420225095 -106.2977133365033 614
-252.3901022132629 -106.2977133365033 614
-251.6712302242749 -106.2977133365033 614
-250.95235823528685 -106.2977133365033 614
-250.23348624629884 -106.2977133365033 614
-253.98474578309325 -108.20206976435598 625
-253.25299497997025 -108.20206976435598 625
-252.52124417684726 -108.20206976435598 625
-169.20253954714272 -72.71179088164722 420
-146.21602927311818 -63.01688543076092 364
-145.78985760537935 -63.01688543076092 364
-146.9610890798124 -63.7093786772528 368
-316.0014934438774 -114.00511191826074 663
-309.04436489404367 -111.7697175669223 650
-308.28334405879576 -111.7697175669223 650
-307.52232322354786 -111.7697175669223 650
-306.7613023882999 -111.7697175669223 650
-306.000281553052 -111.7697175669223 650
-305.2392607178041 -111.7697175669223 650
-304.4782398825562 -111.7697175669223 650
-303.7172190473083 -111.7697175669223 650
-291.3040367423657 -107.47088227588682 625
-290.57228593924276 -107.47088227588682 625
-289.84053513611974 -107.47088227588682 625
-289.1087843329968 -107.47088227588682 625
-283.301597739748 -105.57939474783122 614
-282.58272575075995 -105.57939474783122 614
-281.86385376177196 -105.57939474783122 614
-281.1449817727839 -105.57939474783122 614
-280.4261097837959 -105.57939474783122 614
-279.7072377948079 -105.57939474783122 614
-278.98836580581985 -105.57939474783122 614
-278.2694938168318 -105.57939474783122 614
-277.55062182784377 -105.57939474783122 614
-276.8317498388558 -105.57939474783122 614
-276.11287784986774 -105.57939474783122 614
-275.3940058608797 -105.57939474783122 614
-274.6751338718917 -105.57939474783122 614
-273.9562618829037 -105.57939474783122 614
-273.23738989391563 -105.57939474783122 614
-272.5185179049276 -105.57939474783122 614
-271.7996459159396 -105.57939474783122 614
-271.08077392695157 -105.57939474783122 614
-270.3619019379635 -105.57939474783122 614
-269.64302994897554 -105.57939474783122 614
-268.9241579599875 -105.57939474783122 614
-268.20528597099946 -105.57939474783122 614
-267.48641398201147 -105.57939474783122 614
-266.7675419930234 -105.57939474783122 614
-266.0486700040354 -105.57939474783122 614
-265.32979801504734 -105.57939474783122 614
-264.61092602605936 -105.57939474783122 614
-263.8920540370713 -105.57939474783122 614
-263.1731820480833 -105.57939474783122 614
-262.4543100590953 -105.57939474783122 614
-266.42450943618405 -107.47088227588682 625
-265.6927586330611 -107.47088227588682 625
-264.9610078299381 -107.47088227588682 625
-264.2292570268151 -107.47088227588682 625
-263.49750622369214 -107.47088227588682 625
-262.7657554205691 -107.47088227588682 625
-262.03400461744616 -107.47088227588682 625
-261.30225381432314 -107.47088227588682 625
-260.5705030112002 -107.47088227588682 625
-259.83875220807715 -107.47088227588682 625
-259.1070014049542 -107.47088227588682 625
-258.37525060183117 -107.47088227588682 625
-253.10897420225095 -105.57939474783122 614
-252.3901022132629 -105.57939474783122 614
-251.6712302242749 -105.57939474783122 614
-250.95235823528685 -105.57939474783122 614
-254.71649658621624 -107.47088227588682 625
-253.98474578309325 -107.47088227588682 625
-253.25299497997025 -107.47088227588682 625
-251.78949337372427 -107.47088227588682 625
-147.82279882557003 -63.27885548404216 368
-147.3919439526912 -63.27885548404216 368
-316.77773469583025 -113.22946823049266 663
-316.0014934438774 -113.22946823049266 663
-309.04436489404367 -111.00928257891437 650
-308.28334405879576 -111.00928257891437 650
-307.52232322354786 -111.00928257891437 650
-304.4782398825562 -111.00928257891437 650
-303.7172190473083 -111.00928257891437 650
-291.3040367423657 -106.73969478741766 625
-290.57228593924276 -106.73969478741766 625
-289.84053513611974 -106.73969478741766 625
-289.1087843329968 -106.73969478741766 625
-283.301597739748 -104.86107615915911 614
-282.58272575075995 -104.86107615915911 614
-281.86385376177196 -104.86107615915911 614
-281.1449817727839 -104.86107615915911 614
